ply
format ascii 1.0
comment VCGLIB generated
element vertex 2492
property float x
property float y
property float z
end_header
0.556 -0.590 1.094
0.558 -0.589 1.092
0.561 -0.588 1.090
0.563 -0.588 1.088
0.566 -0.588 1.089
0.570 -0.589 1.090
0.574 -0.590 1.091
0.577 -0.590 1.090
0.579 -0.589 1.089
0.582 -0.589 1.088
0.585 -0.589 1.088
0.588 -0.589 1.088
0.591 -0.589 1.088
0.594 -0.589 1.087
0.598 -0.589 1.087
0.600 -0.589 1.086
0.604 -0.589 1.086
0.607 -0.589 1.085
0.610 -0.589 1.085
0.613 -0.589 1.085
0.616 -0.590 1.085
0.619 -0.590 1.084
0.622 -0.589 1.083
0.624 -0.589 1.082
0.628 -0.589 1.082
0.632 -0.590 1.083
0.635 -0.590 1.083
0.637 -0.589 1.080
0.639 -0.589 1.079
0.642 -0.589 1.079
0.646 -0.590 1.080
0.650 -0.590 1.081
0.653 -0.590 1.080
0.655 -0.589 1.077
0.658 -0.589 1.077
0.662 -0.590 1.077
0.664 -0.589 1.076
0.667 -0.589 1.075
0.671 -0.590 1.076
0.673 -0.589 1.074
0.677 -0.590 1.074
0.679 -0.590 1.074
0.683 -0.590 1.073
0.686 -0.590 1.073
0.690 -0.591 1.075
0.691 -0.589 1.071
0.692 -0.587 1.066
0.695 -0.587 1.066
0.699 -0.588 1.067
0.703 -0.589 1.068
0.708 -0.591 1.071
0.712 -0.591 1.070
0.714 -0.591 1.069
0.716 -0.590 1.067
0.719 -0.590 1.066
0.722 -0.590 1.066
0.726 -0.591 1.066
0.729 -0.590 1.065
0.731 -0.590 1.063
0.734 -0.590 1.063
0.737 -0.589 1.061
0.740 -0.590 1.061
0.746 -0.592 1.064
0.750 -0.593 1.065
0.753 -0.593 1.064
0.757 -0.593 1.064
0.000 0.000 0.000
0.000 0.000 0.000
0.000 0.000 0.000
0.000 0.000 0.000
0.000 0.000 0.000
0.000 0.000 0.000
0.000 0.000 0.000
0.000 0.000 0.000
0.000 0.000 0.000
0.000 0.000 0.000
0.000 0.000 0.000
0.000 0.000 0.000
0.000 0.000 0.000
0.000 0.000 0.000
0.000 0.000 0.000
0.000 0.000 0.000
0.000 0.000 0.000
0.000 0.000 0.000
0.000 0.000 0.000
0.000 0.000 0.000
0.000 0.000 0.000
0.000 0.000 0.000
0.000 0.000 0.000
0.000 0.000 0.000
0.000 0.000 0.000
0.000 0.000 0.000
0.000 0.000 0.000
0.000 0.000 0.000
0.000 0.000 0.000
0.000 0.000 0.000
0.000 0.000 0.000
0.000 0.000 0.000
0.000 0.000 0.000
0.000 0.000 0.000
0.000 0.000 0.000
0.000 0.000 0.000
0.000 0.000 0.000
0.000 0.000 0.000
0.000 0.000 0.000
0.000 0.000 0.000
0.000 0.000 0.000
0.000 0.000 0.000
0.000 0.000 0.000
0.000 0.000 0.000
0.000 0.000 0.000
0.000 0.000 0.000
0.000 0.000 0.000
0.000 0.000 0.000
0.000 0.000 0.000
0.000 0.000 0.000
0.000 0.000 0.000
0.000 0.000 0.000
0.000 0.000 0.000
0.000 0.000 0.000
0.000 0.000 0.000
0.000 0.000 0.000
0.000 0.000 0.000
0.000 0.000 0.000
0.000 0.000 0.000
0.000 0.000 0.000
0.000 0.000 0.000
0.000 0.000 0.000
0.000 0.000 0.000
-0.289 -0.285 0.522
-0.289 -0.286 0.524
0.000 0.000 0.000
0.000 0.000 0.000
0.000 0.000 0.000
0.000 0.000 0.000
0.000 0.000 0.000
0.000 0.000 0.000
0.000 0.000 0.000
0.000 0.000 0.000
0.000 0.000 0.000
0.000 0.000 0.000
0.000 0.000 0.000
0.000 0.000 0.000
0.000 0.000 0.000
0.000 0.000 0.000
0.000 0.000 0.000
0.000 0.000 0.000
0.000 0.000 0.000
-0.254 -0.276 0.510
-0.253 -0.277 0.511
-0.252 -0.278 0.513
-0.253 -0.281 0.518
-0.254 -0.283 0.523
-0.257 -0.287 0.531
-0.264 -0.297 0.550
-0.280 -0.317 0.587
-0.306 -0.349 0.645
-0.333 -0.381 0.705
-0.341 -0.393 0.728
-0.345 -0.400 0.740
-0.345 -0.402 0.745
-0.345 -0.405 0.750
-0.344 -0.406 0.752
-0.343 -0.407 0.755
-0.342 -0.409 0.757
-0.341 -0.410 0.760
-0.340 -0.411 0.763
-0.339 -0.413 0.766
-0.338 -0.414 0.768
-0.337 -0.416 0.771
-0.336 -0.417 0.774
-0.335 -0.418 0.776
-0.333 -0.419 0.778
-0.333 -0.421 0.782
-0.333 -0.423 0.787
-0.333 -0.426 0.792
-0.332 -0.428 0.796
-0.331 -0.429 0.798
-0.330 -0.431 0.801
-0.329 -0.433 0.805
-0.328 -0.434 0.808
-0.327 -0.436 0.811
-0.326 -0.437 0.813
-0.325 -0.439 0.817
-0.323 -0.440 0.819
-0.322 -0.441 0.821
-0.320 -0.441 0.822
-0.318 -0.442 0.824
-0.317 -0.443 0.826
-0.315 -0.444 0.828
-0.314 -0.445 0.830
-0.311 -0.445 0.830
-0.309 -0.445 0.829
-0.306 -0.445 0.829
-0.304 -0.445 0.830
-0.302 -0.445 0.831
-0.299 -0.444 0.829
-0.296 -0.443 0.827
-0.293 -0.442 0.825
-0.289 -0.439 0.820
-0.283 -0.433 0.808
-0.261 -0.403 0.753
-0.229 -0.356 0.664
-0.219 -0.343 0.641
-0.214 -0.339 0.633
-0.212 -0.338 0.631
-0.210 -0.338 0.631
-0.208 -0.337 0.630
-0.206 -0.337 0.629
-0.204 -0.336 0.629
-0.202 -0.336 0.628
-0.201 -0.336 0.628
-0.198 -0.335 0.627
-0.197 -0.335 0.627
-0.194 -0.334 0.625
-0.193 -0.334 0.624
-0.191 -0.333 0.624
-0.189 -0.334 0.624
-0.187 -0.334 0.624
-0.186 -0.333 0.624
-0.184 -0.333 0.624
-0.182 -0.333 0.624
-0.180 -0.333 0.624
-0.179 -0.333 0.624
-0.177 -0.334 0.626
-0.178 -0.338 0.633
-0.177 -0.341 0.638
-0.176 -0.342 0.640
-0.176 -0.344 0.644
-0.179 -0.354 0.664
-0.190 -0.380 0.712
-0.198 -0.399 0.748
-0.201 -0.410 0.768
-0.209 -0.430 0.806
-0.227 -0.472 0.886
-0.234 -0.494 0.925
-0.235 -0.501 0.939
-0.234 -0.505 0.946
-0.233 -0.507 0.951
-0.232 -0.510 0.956
-0.230 -0.511 0.958
-0.227 -0.510 0.957
-0.224 -0.510 0.956
-0.222 -0.511 0.958
-0.220 -0.512 0.960
-0.217 -0.513 0.962
-0.215 -0.513 0.963
-0.213 -0.514 0.964
-0.210 -0.514 0.965
-0.207 -0.514 0.964
-0.204 -0.513 0.963
-0.202 -0.512 0.962
-0.199 -0.512 0.961
-0.196 -0.512 0.962
-0.194 -0.512 0.962
-0.191 -0.513 0.963
-0.189 -0.515 0.966
-0.187 -0.517 0.970
-0.186 -0.519 0.974
-0.184 -0.521 0.978
-0.182 -0.525 0.986
-0.182 -0.531 0.997
-0.181 -0.538 1.010
-0.182 -0.549 1.032
-0.183 -0.560 1.052
-0.182 -0.566 1.062
-0.179 -0.566 1.063
-0.176 -0.565 1.061
-0.173 -0.565 1.061
-0.164 -0.545 1.024
-0.157 -0.530 0.995
-0.153 -0.525 0.986
-0.150 -0.524 0.984
-0.147 -0.524 0.984
-0.145 -0.523 0.983
-0.142 -0.524 0.984
-0.139 -0.523 0.984
-0.137 -0.524 0.984
-0.134 -0.523 0.984
-0.131 -0.524 0.984
-0.129 -0.524 0.984
-0.126 -0.524 0.984
-0.123 -0.523 0.983
-0.120 -0.523 0.983
-0.118 -0.522 0.982
-0.115 -0.522 0.981
-0.112 -0.521 0.980
-0.109 -0.521 0.979
-0.107 -0.520 0.978
-0.104 -0.520 0.978
-0.101 -0.520 0.978
-0.099 -0.520 0.978
-0.096 -0.520 0.977
-0.093 -0.520 0.977
-0.090 -0.519 0.976
-0.088 -0.519 0.976
-0.085 -0.519 0.976
-0.082 -0.519 0.976
-0.080 -0.519 0.975
-0.077 -0.518 0.975
-0.074 -0.518 0.974
-0.072 -0.518 0.974
-0.069 -0.518 0.974
-0.066 -0.518 0.973
-0.064 -0.517 0.972
-0.061 -0.517 0.972
-0.058 -0.517 0.972
-0.056 -0.516 0.971
-0.053 -0.516 0.970
-0.050 -0.515 0.969
-0.048 -0.515 0.968
-0.045 -0.515 0.968
-0.042 -0.515 0.968
-0.040 -0.515 0.968
-0.037 -0.514 0.967
-0.034 -0.514 0.967
-0.032 -0.513 0.965
-0.029 -0.513 0.965
-0.027 -0.513 0.964
-0.024 -0.512 0.964
-0.021 -0.512 0.963
-0.019 -0.511 0.961
-0.016 -0.511 0.961
-0.013 -0.511 0.961
-0.011 -0.511 0.960
-0.008 -0.510 0.959
-0.006 -0.509 0.957
-0.003 -0.509 0.957
0.000 -0.509 0.957
0.002 -0.509 0.957
0.005 -0.508 0.956
0.007 -0.508 0.955
0.010 -0.507 0.954
0.013 -0.507 0.953
0.015 -0.506 0.952
0.018 -0.506 0.952
0.020 -0.506 0.952
0.023 -0.506 0.951
0.025 -0.506 0.952
0.028 -0.509 0.957
0.031 -0.516 0.971
0.035 -0.528 0.994
0.038 -0.537 1.009
0.041 -0.538 1.011
0.044 -0.540 1.015
0.047 -0.544 1.022
0.050 -0.545 1.025
0.052 -0.546 1.026
0.056 -0.554 1.041
0.060 -0.563 1.060
0.063 -0.569 1.070
0.066 -0.571 1.073
0.069 -0.564 1.060
0.069 -0.548 1.031
0.069 -0.527 0.991
0.071 -0.520 0.978
0.074 -0.523 0.984
0.077 -0.526 0.989
0.081 -0.531 0.998
0.084 -0.534 1.005
0.088 -0.540 1.016
0.091 -0.542 1.019
0.093 -0.541 1.017
0.096 -0.543 1.021
0.099 -0.544 1.022
0.102 -0.544 1.022
0.098 -0.510 0.959
0.098 -0.496 0.933
0.100 -0.493 0.926
0.102 -0.492 0.924
0.105 -0.492 0.924
0.107 -0.491 0.923
0.110 -0.491 0.922
0.112 -0.490 0.921
0.114 -0.489 0.920
0.117 -0.489 0.919
0.119 -0.489 0.918
0.122 -0.488 0.917
0.124 -0.488 0.917
0.126 -0.487 0.916
0.129 -0.487 0.915
0.131 -0.486 0.914
0.133 -0.486 0.912
0.136 -0.485 0.911
0.138 -0.485 0.912
0.141 -0.488 0.916
0.146 -0.494 0.927
0.151 -0.504 0.947
0.160 -0.523 0.983
0.167 -0.538 1.010
0.173 -0.549 1.032
0.180 -0.562 1.056
0.186 -0.572 1.075
0.191 -0.578 1.086
0.195 -0.580 1.089
0.198 -0.581 1.090
0.201 -0.581 1.091
0.204 -0.581 1.092
0.207 -0.582 1.092
0.210 -0.582 1.093
0.213 -0.583 1.094
0.217 -0.583 1.094
0.220 -0.584 1.095
0.223 -0.584 1.095
0.226 -0.584 1.095
0.229 -0.583 1.095
0.232 -0.584 1.095
0.235 -0.584 1.095
0.238 -0.584 1.096
0.241 -0.584 1.095
0.244 -0.584 1.096
0.247 -0.584 1.096
0.250 -0.584 1.096
0.253 -0.584 1.096
0.256 -0.584 1.096
0.259 -0.585 1.097
0.262 -0.585 1.097
0.265 -0.585 1.097
0.268 -0.585 1.096
0.271 -0.585 1.096
0.274 -0.585 1.096
0.277 -0.585 1.097
0.280 -0.585 1.097
0.283 -0.585 1.097
0.286 -0.585 1.096
0.289 -0.586 1.098
0.293 -0.586 1.099
0.296 -0.587 1.100
0.299 -0.587 1.099
0.302 -0.587 1.099
0.305 -0.586 1.098
0.308 -0.586 1.098
0.311 -0.587 1.098
0.314 -0.587 1.099
0.317 -0.587 1.099
0.320 -0.587 1.098
0.322 -0.586 1.097
0.325 -0.586 1.097
0.328 -0.586 1.097
0.332 -0.587 1.098
0.335 -0.587 1.098
0.338 -0.587 1.099
0.341 -0.587 1.099
0.344 -0.588 1.099
0.347 -0.587 1.099
0.350 -0.587 1.099
0.353 -0.588 1.099
0.356 -0.588 1.100
0.359 -0.588 1.100
0.362 -0.588 1.100
0.365 -0.588 1.099
0.369 -0.589 1.100
0.372 -0.589 1.100
0.375 -0.589 1.100
0.378 -0.589 1.100
0.381 -0.589 1.101
0.384 -0.589 1.101
0.387 -0.590 1.101
0.390 -0.589 1.100
0.393 -0.589 1.099
0.396 -0.589 1.099
0.399 -0.589 1.098
0.402 -0.588 1.098
0.405 -0.589 1.098
0.408 -0.589 1.098
0.411 -0.589 1.098
0.414 -0.589 1.097
0.417 -0.589 1.097
0.420 -0.589 1.098
0.423 -0.589 1.097
0.426 -0.588 1.096
0.428 -0.588 1.096
0.432 -0.588 1.096
0.435 -0.589 1.097
0.438 -0.589 1.096
0.440 -0.588 1.095
0.443 -0.588 1.094
0.447 -0.589 1.095
0.450 -0.589 1.096
0.453 -0.589 1.095
0.455 -0.588 1.093
0.458 -0.588 1.093
0.461 -0.588 1.092
0.464 -0.588 1.093
0.467 -0.588 1.093
0.471 -0.589 1.094
0.474 -0.589 1.093
0.477 -0.589 1.093
0.480 -0.589 1.093
0.484 -0.590 1.094
0.487 -0.590 1.094
0.490 -0.590 1.094
0.493 -0.590 1.094
0.496 -0.590 1.094
0.500 -0.591 1.095
0.503 -0.591 1.095
0.506 -0.592 1.096
0.509 -0.591 1.094
0.511 -0.590 1.093
0.514 -0.590 1.093
0.517 -0.591 1.093
0.521 -0.591 1.093
0.524 -0.591 1.093
0.528 -0.592 1.094
0.530 -0.591 1.092
0.533 -0.591 1.091
0.535 -0.590 1.090
0.539 -0.591 1.091
0.542 -0.591 1.092
0.546 -0.592 1.092
0.548 -0.591 1.091
0.551 -0.591 1.091
0.554 -0.591 1.089
0.557 -0.591 1.089
0.559 -0.590 1.087
0.562 -0.590 1.087
0.565 -0.589 1.085
0.569 -0.590 1.086
0.572 -0.590 1.086
0.574 -0.590 1.086
0.577 -0.590 1.084
0.580 -0.590 1.084
0.583 -0.590 1.084
0.587 -0.591 1.085
0.590 -0.591 1.084
0.593 -0.590 1.083
0.595 -0.590 1.082
0.598 -0.590 1.081
0.601 -0.590 1.081
0.604 -0.590 1.081
0.607 -0.589 1.079
0.610 -0.590 1.080
0.614 -0.590 1.080
0.616 -0.590 1.079
0.618 -0.589 1.077
0.621 -0.589 1.076
0.625 -0.589 1.077
0.629 -0.590 1.078
0.631 -0.590 1.076
0.634 -0.589 1.075
0.637 -0.589 1.075
0.641 -0.590 1.076
0.644 -0.591 1.076
0.647 -0.591 1.075
0.649 -0.590 1.073
0.652 -0.590 1.073
0.655 -0.590 1.072
0.659 -0.590 1.072
0.662 -0.591 1.073
0.666 -0.591 1.073
0.668 -0.591 1.072
0.672 -0.591 1.072
0.674 -0.591 1.070
0.677 -0.591 1.070
0.680 -0.591 1.069
0.684 -0.592 1.070
0.688 -0.592 1.070
0.690 -0.591 1.068
0.691 -0.590 1.065
0.695 -0.591 1.066
0.697 -0.590 1.064
0.701 -0.590 1.064
0.704 -0.590 1.064
0.708 -0.591 1.064
0.709 -0.590 1.061
0.713 -0.590 1.061
0.715 -0.590 1.060
0.719 -0.590 1.060
0.721 -0.590 1.058
0.727 -0.592 1.061
0.729 -0.592 1.060
0.731 -0.591 1.058
0.734 -0.590 1.057
0.738 -0.591 1.057
0.741 -0.591 1.057
0.746 -0.592 1.058
0.750 -0.594 1.060
0.753 -0.593 1.058
0.000 0.000 0.000
0.000 0.000 0.000
0.000 0.000 0.000
0.000 0.000 0.000
0.000 0.000 0.000
0.000 0.000 0.000
0.000 0.000 0.000
0.000 0.000 0.000
0.000 0.000 0.000
0.000 0.000 0.000
0.000 0.000 0.000
0.000 0.000 0.000
0.000 0.000 0.000
0.000 0.000 0.000
0.000 0.000 0.000
0.000 0.000 0.000
0.000 0.000 0.000
0.000 0.000 0.000
0.000 0.000 0.000
0.000 0.000 0.000
0.000 0.000 0.000
0.000 0.000 0.000
0.000 0.000 0.000
0.000 0.000 0.000
0.000 0.000 0.000
0.000 0.000 0.000
0.000 0.000 0.000
0.000 0.000 0.000
0.000 0.000 0.000
0.000 0.000 0.000
0.000 0.000 0.000
0.000 0.000 0.000
0.000 0.000 0.000
0.000 0.000 0.000
0.000 0.000 0.000
0.000 0.000 0.000
0.000 0.000 0.000
0.000 0.000 0.000
0.000 0.000 0.000
0.000 0.000 0.000
0.000 0.000 0.000
0.000 0.000 0.000
0.000 0.000 0.000
0.000 0.000 0.000
0.000 0.000 0.000
0.000 0.000 0.000
0.000 0.000 0.000
0.000 0.000 0.000
0.000 0.000 0.000
0.000 0.000 0.000
0.000 0.000 0.000
0.000 0.000 0.000
0.000 0.000 0.000
0.000 0.000 0.000
0.000 0.000 0.000
0.000 0.000 0.000
0.000 0.000 0.000
0.000 0.000 0.000
0.000 0.000 0.000
0.000 0.000 0.000
0.000 0.000 0.000
0.000 0.000 0.000
0.000 0.000 0.000
-0.288 -0.285 0.520
-0.288 -0.287 0.523
0.000 0.000 0.000
0.000 0.000 0.000
0.000 0.000 0.000
0.000 0.000 0.000
0.000 0.000 0.000
0.000 0.000 0.000
0.000 0.000 0.000
0.000 0.000 0.000
0.000 0.000 0.000
0.000 0.000 0.000
0.000 0.000 0.000
0.000 0.000 0.000
0.000 0.000 0.000
0.000 0.000 0.000
0.000 0.000 0.000
0.000 0.000 0.000
0.000 0.000 0.000
-0.254 -0.278 0.511
-0.253 -0.278 0.511
-0.254 -0.281 0.515
-0.254 -0.283 0.519
-0.255 -0.286 0.525
-0.258 -0.290 0.533
-0.264 -0.298 0.549
-0.277 -0.315 0.580
-0.301 -0.345 0.635
-0.326 -0.375 0.691
-0.340 -0.394 0.725
-0.344 -0.401 0.738
-0.345 -0.405 0.746
-0.345 -0.407 0.750
-0.344 -0.409 0.753
-0.343 -0.410 0.755
-0.343 -0.411 0.759
-0.341 -0.412 0.761
-0.341 -0.414 0.764
-0.339 -0.415 0.765
-0.338 -0.416 0.768
-0.337 -0.418 0.771
-0.336 -0.419 0.774
-0.335 -0.420 0.776
-0.335 -0.422 0.780
-0.334 -0.424 0.784
-0.334 -0.427 0.789
-0.333 -0.429 0.793
-0.333 -0.431 0.797
-0.331 -0.432 0.799
-0.330 -0.434 0.802
-0.329 -0.435 0.806
-0.329 -0.438 0.810
-0.327 -0.439 0.812
-0.326 -0.440 0.815
-0.325 -0.442 0.818
-0.324 -0.443 0.820
-0.322 -0.443 0.822
-0.320 -0.444 0.823
-0.319 -0.445 0.825
-0.317 -0.446 0.827
-0.315 -0.447 0.829
-0.314 -0.448 0.830
-0.312 -0.448 0.831
-0.309 -0.447 0.830
-0.306 -0.447 0.829
-0.304 -0.447 0.830
-0.302 -0.447 0.830
-0.300 -0.447 0.829
-0.296 -0.445 0.827
-0.293 -0.444 0.824
-0.289 -0.442 0.820
-0.284 -0.436 0.810
-0.263 -0.407 0.757
-0.230 -0.359 0.667
-0.220 -0.346 0.642
-0.215 -0.341 0.633
-0.212 -0.340 0.632
-0.211 -0.340 0.631
-0.208 -0.339 0.631
-0.207 -0.339 0.630
-0.204 -0.338 0.629
-0.202 -0.338 0.628
-0.201 -0.337 0.628
-0.199 -0.337 0.627
-0.197 -0.337 0.626
-0.195 -0.336 0.625
-0.193 -0.336 0.624
-0.191 -0.335 0.624
-0.189 -0.336 0.625
-0.187 -0.336 0.625
-0.186 -0.335 0.624
-0.184 -0.335 0.624
-0.182 -0.335 0.624
-0.180 -0.335 0.624
-0.179 -0.335 0.624
-0.178 -0.336 0.626
-0.178 -0.340 0.633
-0.178 -0.343 0.639
-0.176 -0.344 0.641
-0.176 -0.346 0.644
-0.179 -0.355 0.662
-0.190 -0.381 0.711
-0.198 -0.401 0.748
-0.201 -0.412 0.769
-0.208 -0.432 0.805
-0.227 -0.476 0.887
-0.235 -0.496 0.926
-0.235 -0.503 0.937
-0.234 -0.506 0.943
-0.233 -0.509 0.949
-0.231 -0.511 0.954
-0.229 -0.512 0.955
-0.226 -0.511 0.954
-0.223 -0.511 0.954
-0.221 -0.512 0.956
-0.219 -0.514 0.958
-0.217 -0.514 0.959
-0.214 -0.514 0.960
-0.212 -0.515 0.961
-0.209 -0.515 0.962
-0.207 -0.515 0.961
-0.204 -0.514 0.960
-0.201 -0.513 0.958
-0.198 -0.513 0.959
-0.196 -0.514 0.959
-0.193 -0.514 0.959
-0.191 -0.514 0.960
-0.189 -0.517 0.965
-0.187 -0.518 0.968
-0.185 -0.521 0.972
-0.183 -0.523 0.976
-0.182 -0.527 0.985
-0.182 -0.533 0.996
-0.182 -0.541 1.011
-0.183 -0.553 1.033
-0.183 -0.562 1.050
-0.181 -0.566 1.057
-0.179 -0.566 1.058
-0.176 -0.566 1.057
-0.173 -0.567 1.059
-0.165 -0.550 1.028
-0.157 -0.534 0.997
-0.153 -0.528 0.987
-0.150 -0.527 0.984
-0.147 -0.526 0.984
-0.145 -0.526 0.984
-0.142 -0.526 0.984
-0.139 -0.527 0.984
-0.137 -0.526 0.984
-0.134 -0.526 0.984
-0.131 -0.526 0.984
-0.129 -0.527 0.984
-0.126 -0.526 0.984
-0.123 -0.526 0.984
-0.120 -0.526 0.983
-0.118 -0.525 0.982
-0.115 -0.524 0.981
-0.112 -0.524 0.980
-0.109 -0.524 0.980
-0.107 -0.524 0.979
-0.104 -0.523 0.979
-0.101 -0.523 0.978
-0.099 -0.523 0.978
-0.096 -0.523 0.977
-0.093 -0.522 0.977
-0.090 -0.522 0.976
-0.088 -0.522 0.976
-0.085 -0.522 0.976
-0.082 -0.522 0.975
-0.080 -0.521 0.975
-0.077 -0.521 0.975
-0.074 -0.521 0.974
-0.072 -0.520 0.973
-0.069 -0.520 0.973
-0.066 -0.520 0.973
-0.064 -0.520 0.973
-0.061 -0.520 0.972
-0.058 -0.520 0.972
-0.056 -0.519 0.971
-0.053 -0.519 0.971
-0.050 -0.519 0.970
-0.048 -0.519 0.970
-0.045 -0.518 0.969
-0.042 -0.518 0.969
-0.040 -0.518 0.969
-0.037 -0.518 0.969
-0.035 -0.517 0.968
-0.032 -0.517 0.966
-0.029 -0.516 0.965
-0.027 -0.516 0.965
-0.024 -0.515 0.964
-0.021 -0.515 0.964
-0.019 -0.515 0.963
-0.016 -0.514 0.962
-0.013 -0.514 0.962
-0.011 -0.514 0.962
-0.008 -0.513 0.961
-0.006 -0.513 0.959
-0.003 -0.512 0.958
0.000 -0.512 0.958
0.002 -0.512 0.958
0.005 -0.512 0.957
0.007 -0.511 0.956
0.010 -0.510 0.955
0.013 -0.510 0.954
0.015 -0.510 0.954
0.018 -0.510 0.953
0.020 -0.509 0.953
0.023 -0.509 0.952
0.025 -0.510 0.953
0.028 -0.512 0.958
0.031 -0.520 0.972
0.035 -0.532 0.995
0.038 -0.540 1.010
0.041 -0.541 1.012
0.044 -0.543 1.015
0.047 -0.547 1.023
0.050 -0.548 1.025
0.052 -0.549 1.027
0.056 -0.557 1.042
0.060 -0.567 1.061
0.063 -0.571 1.068
0.066 -0.570 1.067
0.068 -0.564 1.055
0.069 -0.547 1.024
0.070 -0.531 0.994
0.071 -0.523 0.979
0.074 -0.526 0.985
0.078 -0.531 0.993
0.081 -0.535 1.001
0.084 -0.538 1.006
0.088 -0.542 1.013
0.091 -0.545 1.018
0.093 -0.544 1.017
0.096 -0.543 1.016
0.099 -0.546 1.022
0.102 -0.546 1.022
0.099 -0.514 0.960
0.098 -0.499 0.934
0.100 -0.496 0.927
0.102 -0.495 0.925
0.105 -0.494 0.924
0.107 -0.494 0.923
0.110 -0.493 0.922
0.112 -0.493 0.921
0.115 -0.492 0.921
0.117 -0.492 0.920
0.119 -0.492 0.920
0.122 -0.491 0.919
0.124 -0.491 0.918
0.126 -0.490 0.916
0.129 -0.490 0.915
0.131 -0.489 0.914
0.133 -0.488 0.912
0.136 -0.487 0.911
0.138 -0.488 0.912
0.141 -0.490 0.916
0.145 -0.496 0.926
0.151 -0.505 0.944
0.159 -0.524 0.979
0.167 -0.539 1.008
0.173 -0.552 1.031
0.180 -0.564 1.054
0.186 -0.573 1.071
0.190 -0.579 1.081
0.194 -0.581 1.085
0.197 -0.582 1.087
0.200 -0.582 1.087
0.203 -0.582 1.088
0.206 -0.582 1.088
0.209 -0.583 1.088
0.213 -0.583 1.089
0.216 -0.584 1.090
0.219 -0.584 1.091
0.222 -0.584 1.091
0.225 -0.584 1.091
0.228 -0.584 1.091
0.231 -0.585 1.091
0.234 -0.585 1.091
0.237 -0.585 1.092
0.240 -0.585 1.092
0.243 -0.585 1.091
0.246 -0.584 1.091
0.249 -0.584 1.090
0.252 -0.585 1.091
0.255 -0.585 1.092
0.258 -0.585 1.092
0.261 -0.585 1.092
0.264 -0.585 1.092
0.267 -0.585 1.092
0.270 -0.585 1.092
0.273 -0.585 1.092
0.276 -0.586 1.093
0.279 -0.586 1.093
0.282 -0.586 1.093
0.285 -0.586 1.093
0.288 -0.586 1.093
0.291 -0.587 1.094
0.294 -0.587 1.094
0.297 -0.587 1.094
0.300 -0.587 1.093
0.303 -0.587 1.094
0.306 -0.587 1.094
0.309 -0.587 1.094
0.312 -0.587 1.094
0.316 -0.588 1.095
0.319 -0.588 1.094
0.321 -0.587 1.093
0.324 -0.587 1.093
0.327 -0.587 1.093
0.330 -0.588 1.094
0.333 -0.588 1.094
0.337 -0.588 1.094
0.340 -0.588 1.095
0.343 -0.589 1.095
0.346 -0.589 1.095
0.349 -0.589 1.095
0.352 -0.589 1.095
0.355 -0.589 1.095
0.358 -0.589 1.095
0.361 -0.589 1.095
0.365 -0.590 1.096
0.368 -0.590 1.097
0.371 -0.591 1.098
0.374 -0.590 1.096
0.377 -0.590 1.096
0.379 -0.590 1.095
0.383 -0.590 1.096
0.386 -0.590 1.096
0.389 -0.590 1.096
0.392 -0.590 1.095
0.395 -0.590 1.095
0.397 -0.590 1.094
0.400 -0.590 1.094
0.403 -0.590 1.094
0.407 -0.590 1.094
0.410 -0.590 1.094
0.413 -0.590 1.094
0.415 -0.590 1.093
0.419 -0.590 1.094
0.421 -0.590 1.093
0.425 -0.590 1.093
0.427 -0.589 1.092
0.430 -0.589 1.092
0.433 -0.590 1.092
0.437 -0.590 1.093
0.439 -0.589 1.091
0.442 -0.589 1.090
0.445 -0.589 1.090
0.448 -0.590 1.091
0.451 -0.589 1.090
0.453 -0.589 1.088
0.456 -0.588 1.088
0.459 -0.589 1.088
0.463 -0.589 1.088
0.466 -0.589 1.089
0.469 -0.590 1.089
0.473 -0.590 1.090
0.476 -0.590 1.090
0.479 -0.591 1.090
0.482 -0.590 1.090
0.485 -0.591 1.090
0.488 -0.590 1.089
0.491 -0.591 1.090
0.494 -0.591 1.090
0.498 -0.592 1.091
0.501 -0.592 1.090
0.504 -0.592 1.091
0.507 -0.592 1.090
0.510 -0.592 1.089
0.513 -0.592 1.089
0.516 -0.592 1.089
0.519 -0.592 1.089
0.522 -0.592 1.089
0.525 -0.591 1.087
0.527 -0.591 1.086
0.530 -0.591 1.085
0.533 -0.591 1.086
0.537 -0.592 1.086
0.540 -0.592 1.087
0.543 -0.592 1.086
0.546 -0.592 1.086
0.549 -0.592 1.085
0.552 -0.592 1.085
0.555 -0.592 1.084
0.558 -0.592 1.084
0.560 -0.591 1.082
0.563 -0.591 1.082
0.566 -0.590 1.081
0.569 -0.591 1.081
0.572 -0.590 1.080
0.574 -0.590 1.078
0.577 -0.590 1.078
0.581 -0.590 1.079
0.584 -0.591 1.079
0.587 -0.591 1.078
0.589 -0.590 1.077
0.591 -0.589 1.075
0.594 -0.589 1.074
0.598 -0.590 1.075
0.602 -0.590 1.075
0.605 -0.590 1.075
0.608 -0.591 1.075
0.611 -0.591 1.076
0.614 -0.591 1.074
0.616 -0.590 1.072
0.619 -0.589 1.071
0.622 -0.590 1.072
0.626 -0.591 1.073
0.629 -0.591 1.072
0.631 -0.590 1.070
0.635 -0.591 1.071
0.638 -0.591 1.071
0.641 -0.591 1.070
0.642 -0.589 1.067
0.644 -0.589 1.065
0.649 -0.590 1.066
0.653 -0.591 1.068
0.656 -0.591 1.067
0.660 -0.591 1.068
0.663 -0.592 1.068
0.666 -0.592 1.067
0.669 -0.591 1.066
0.673 -0.592 1.067
0.675 -0.592 1.065
0.678 -0.592 1.065
0.681 -0.592 1.065
0.685 -0.592 1.065
0.687 -0.592 1.063
0.690 -0.592 1.063
0.692 -0.591 1.061
0.695 -0.591 1.060
0.697 -0.590 1.058
0.702 -0.592 1.060
0.705 -0.592 1.060
0.709 -0.592 1.059
0.710 -0.591 1.057
0.712 -0.590 1.054
0.716 -0.591 1.055
0.720 -0.592 1.056
0.723 -0.592 1.055
0.726 -0.592 1.054
0.729 -0.592 1.054
0.732 -0.592 1.053
0.736 -0.592 1.053
0.738 -0.591 1.051
0.743 -0.593 1.053
0.747 -0.594 1.054
0.749 -0.594 1.053
0.000 0.000 0.000
0.000 0.000 0.000
0.000 0.000 0.000
0.000 0.000 0.000
0.000 0.000 0.000
0.000 0.000 0.000
0.000 0.000 0.000
0.000 0.000 0.000
0.000 0.000 0.000
0.000 0.000 0.000
0.000 0.000 0.000
0.000 0.000 0.000
0.000 0.000 0.000
0.000 0.000 0.000
0.000 0.000 0.000
0.000 0.000 0.000
0.000 0.000 0.000
0.000 0.000 0.000
0.000 0.000 0.000
0.000 0.000 0.000
0.000 0.000 0.000
0.000 0.000 0.000
0.000 0.000 0.000
0.000 0.000 0.000
0.000 0.000 0.000
0.000 0.000 0.000
0.000 0.000 0.000
0.000 0.000 0.000
0.000 0.000 0.000
0.000 0.000 0.000
0.000 0.000 0.000
0.000 0.000 0.000
0.000 0.000 0.000
0.000 0.000 0.000
0.000 0.000 0.000
0.000 0.000 0.000
0.000 0.000 0.000
0.000 0.000 0.000
0.000 0.000 0.000
0.000 0.000 0.000
0.000 0.000 0.000
0.000 0.000 0.000
0.000 0.000 0.000
0.000 0.000 0.000
0.000 0.000 0.000
0.000 0.000 0.000
0.000 0.000 0.000
0.000 0.000 0.000
0.000 0.000 0.000
0.000 0.000 0.000
0.000 0.000 0.000
0.000 0.000 0.000
0.000 0.000 0.000
0.000 0.000 0.000
0.000 0.000 0.000
0.000 0.000 0.000
0.000 0.000 0.000
0.000 0.000 0.000
0.000 0.000 0.000
0.000 0.000 0.000
0.000 0.000 0.000
0.000 0.000 0.000
0.000 0.000 0.000
0.000 0.000 0.000
-0.287 -0.287 0.521
0.000 0.000 0.000
0.000 0.000 0.000
0.000 0.000 0.000
0.000 0.000 0.000
0.000 0.000 0.000
0.000 0.000 0.000
0.000 0.000 0.000
0.000 0.000 0.000
0.000 0.000 0.000
0.000 0.000 0.000
0.000 0.000 0.000
0.000 0.000 0.000
0.000 0.000 0.000
0.000 0.000 0.000
0.000 0.000 0.000
0.000 0.000 0.000
-0.255 -0.279 0.509
-0.254 -0.280 0.510
-0.254 -0.281 0.513
-0.254 -0.282 0.515
-0.255 -0.285 0.521
-0.256 -0.288 0.527
-0.258 -0.292 0.534
-0.261 -0.297 0.544
-0.275 -0.315 0.575
-0.295 -0.340 0.622
-0.320 -0.371 0.679
-0.336 -0.392 0.717
-0.343 -0.402 0.735
-0.345 -0.406 0.745
-0.345 -0.409 0.750
-0.344 -0.410 0.752
-0.344 -0.412 0.756
-0.343 -0.414 0.759
-0.342 -0.415 0.762
-0.340 -0.416 0.763
-0.339 -0.416 0.764
-0.338 -0.418 0.767
-0.337 -0.420 0.771
-0.337 -0.422 0.775
-0.336 -0.424 0.778
-0.335 -0.425 0.781
-0.335 -0.427 0.785
-0.334 -0.430 0.790
-0.334 -0.432 0.795
-0.333 -0.434 0.798
-0.332 -0.435 0.800
-0.331 -0.436 0.803
-0.330 -0.438 0.807
-0.329 -0.440 0.810
-0.328 -0.442 0.814
-0.327 -0.443 0.816
-0.326 -0.444 0.818
-0.324 -0.445 0.820
-0.322 -0.446 0.821
-0.320 -0.446 0.823
-0.319 -0.448 0.825
-0.317 -0.449 0.827
-0.316 -0.450 0.829
-0.314 -0.450 0.831
-0.312 -0.450 0.831
-0.309 -0.450 0.829
-0.306 -0.449 0.829
-0.304 -0.449 0.829
-0.302 -0.449 0.829
-0.299 -0.449 0.828
-0.296 -0.447 0.826
-0.293 -0.446 0.823
-0.289 -0.444 0.819
-0.284 -0.439 0.811
-0.264 -0.412 0.761
-0.231 -0.363 0.671
-0.220 -0.349 0.644
-0.215 -0.343 0.633
-0.212 -0.342 0.632
-0.210 -0.341 0.631
-0.209 -0.341 0.631
-0.207 -0.341 0.630
-0.205 -0.341 0.630
-0.203 -0.340 0.629
-0.201 -0.340 0.628
-0.199 -0.339 0.627
-0.197 -0.339 0.627
-0.195 -0.338 0.626
-0.193 -0.338 0.625
-0.191 -0.337 0.625
-0.189 -0.337 0.625
-0.188 -0.337 0.625
-0.186 -0.337 0.625
-0.184 -0.337 0.624
-0.182 -0.337 0.624
-0.180 -0.337 0.624
-0.179 -0.337 0.624
-0.177 -0.337 0.625
-0.178 -0.341 0.633
-0.178 -0.345 0.639
-0.177 -0.346 0.642
-0.176 -0.347 0.644
-0.178 -0.357 0.661
-0.189 -0.382 0.709
-0.198 -0.404 0.748
-0.201 -0.415 0.769
-0.209 -0.435 0.806
-0.227 -0.478 0.886
-0.234 -0.498 0.924
-0.234 -0.504 0.935
-0.233 -0.507 0.940
-0.232 -0.510 0.947
-0.231 -0.513 0.952
-0.228 -0.513 0.952
-0.225 -0.512 0.951
-0.223 -0.513 0.952
-0.221 -0.514 0.954
-0.219 -0.515 0.955
-0.216 -0.515 0.957
-0.214 -0.516 0.957
-0.211 -0.516 0.958
-0.209 -0.516 0.958
-0.206 -0.516 0.957
-0.203 -0.515 0.956
-0.200 -0.515 0.956
-0.198 -0.515 0.956
-0.195 -0.515 0.956
-0.193 -0.515 0.956
-0.191 -0.516 0.959
-0.189 -0.518 0.962
-0.187 -0.520 0.966
-0.185 -0.522 0.970
-0.183 -0.525 0.975
-0.182 -0.530 0.984
-0.182 -0.536 0.995
-0.182 -0.544 1.012
-0.183 -0.556 1.033
-0.182 -0.563 1.046
-0.180 -0.566 1.052
-0.178 -0.566 1.052
-0.175 -0.566 1.053
-0.172 -0.567 1.055
-0.166 -0.555 1.031
-0.158 -0.538 1.000
-0.153 -0.532 0.988
-0.150 -0.530 0.985
-0.147 -0.529 0.984
-0.145 -0.529 0.984
-0.142 -0.529 0.984
-0.139 -0.529 0.984
-0.137 -0.529 0.984
-0.134 -0.529 0.984
-0.131 -0.529 0.984
-0.129 -0.529 0.984
-0.126 -0.529 0.984
-0.123 -0.529 0.984
-0.121 -0.529 0.984
-0.118 -0.528 0.983
-0.115 -0.528 0.982
-0.112 -0.528 0.981
-0.109 -0.527 0.981
-0.107 -0.527 0.980
-0.104 -0.526 0.979
-0.101 -0.526 0.979
-0.099 -0.526 0.979
-0.096 -0.526 0.978
-0.093 -0.526 0.978
-0.090 -0.525 0.977
-0.088 -0.525 0.976
-0.085 -0.525 0.976
-0.082 -0.524 0.976
-0.080 -0.524 0.975
-0.077 -0.524 0.975
-0.074 -0.524 0.974
-0.072 -0.523 0.974
-0.069 -0.523 0.974
-0.066 -0.523 0.973
-0.064 -0.523 0.972
-0.061 -0.522 0.972
-0.058 -0.522 0.972
-0.056 -0.522 0.972
-0.053 -0.522 0.971
-0.050 -0.522 0.971
-0.048 -0.522 0.971
-0.045 -0.521 0.970
-0.042 -0.521 0.970
-0.040 -0.521 0.970
-0.037 -0.521 0.970
-0.035 -0.521 0.969
-0.032 -0.520 0.968
-0.029 -0.520 0.967
-0.027 -0.519 0.966
-0.024 -0.519 0.966
-0.021 -0.519 0.965
-0.019 -0.518 0.964
-0.016 -0.518 0.963
-0.013 -0.517 0.963
-0.011 -0.517 0.963
-0.008 -0.517 0.962
-0.006 -0.516 0.961
-0.003 -0.516 0.960
0.000 -0.516 0.960
0.002 -0.515 0.959
0.005 -0.515 0.958
0.007 -0.514 0.957
0.010 -0.514 0.956
0.013 -0.513 0.956
0.015 -0.513 0.955
0.018 -0.513 0.954
0.020 -0.512 0.953
0.023 -0.512 0.953
0.025 -0.513 0.954
0.028 -0.515 0.959
0.031 -0.522 0.972
0.035 -0.535 0.995
0.038 -0.543 1.011
0.041 -0.544 1.012
0.044 -0.546 1.015
0.047 -0.550 1.023
0.050 -0.552 1.028
0.053 -0.554 1.031
0.056 -0.561 1.045
0.060 -0.569 1.060
0.063 -0.572 1.065
0.066 -0.572 1.065
0.068 -0.562 1.046
0.069 -0.548 1.019
0.069 -0.527 0.980
0.070 -0.517 0.961
0.073 -0.520 0.968
0.077 -0.530 0.987
0.081 -0.535 0.996
0.084 -0.538 1.002
0.087 -0.543 1.011
0.091 -0.546 1.017
0.093 -0.546 1.015
0.096 -0.544 1.012
0.099 -0.548 1.020
0.102 -0.549 1.021
0.099 -0.517 0.961
0.099 -0.503 0.935
0.100 -0.499 0.928
0.103 -0.498 0.926
0.105 -0.497 0.925
0.108 -0.497 0.925
0.110 -0.496 0.923
0.112 -0.496 0.923
0.115 -0.496 0.922
0.117 -0.495 0.922
0.120 -0.495 0.921
0.122 -0.495 0.920
0.124 -0.494 0.918
0.127 -0.493 0.918
0.129 -0.493 0.916
0.131 -0.492 0.915
0.134 -0.491 0.913
0.136 -0.491 0.912
0.138 -0.491 0.913
0.141 -0.493 0.916
0.145 -0.498 0.925
0.150 -0.506 0.942
0.159 -0.525 0.977
0.166 -0.542 1.007
0.173 -0.554 1.030
0.180 -0.566 1.052
0.185 -0.575 1.068
0.190 -0.580 1.077
0.193 -0.582 1.081
0.196 -0.582 1.082
0.200 -0.583 1.083
0.203 -0.583 1.083
0.206 -0.583 1.083
0.209 -0.584 1.084
0.212 -0.584 1.085
0.215 -0.585 1.086
0.218 -0.585 1.087
0.221 -0.585 1.086
0.224 -0.585 1.086
0.227 -0.585 1.086
0.230 -0.585 1.086
0.233 -0.585 1.086
0.236 -0.586 1.087
0.239 -0.586 1.088
0.242 -0.586 1.087
0.245 -0.585 1.086
0.248 -0.585 1.086
0.251 -0.585 1.086
0.254 -0.586 1.087
0.257 -0.586 1.087
0.260 -0.586 1.087
0.263 -0.586 1.088
0.266 -0.586 1.088
0.269 -0.586 1.087
0.272 -0.586 1.087
0.275 -0.586 1.087
0.278 -0.587 1.088
0.281 -0.587 1.089
0.284 -0.587 1.089
0.287 -0.588 1.089
0.290 -0.588 1.090
0.293 -0.588 1.090
0.296 -0.588 1.090
0.299 -0.588 1.089
0.302 -0.588 1.090
0.305 -0.588 1.090
0.308 -0.588 1.089
0.311 -0.588 1.090
0.314 -0.588 1.090
0.317 -0.589 1.090
0.320 -0.588 1.090
0.323 -0.589 1.090
0.326 -0.588 1.089
0.329 -0.588 1.089
0.332 -0.588 1.089
0.335 -0.589 1.090
0.339 -0.589 1.091
0.342 -0.590 1.092
0.345 -0.590 1.092
0.348 -0.590 1.092
0.351 -0.590 1.091
0.354 -0.590 1.091
0.357 -0.590 1.091
0.360 -0.590 1.092
0.363 -0.591 1.092
0.366 -0.591 1.093
0.370 -0.591 1.093
0.372 -0.591 1.092
0.375 -0.590 1.090
0.378 -0.590 1.090
0.381 -0.590 1.091
0.385 -0.591 1.092
0.388 -0.591 1.092
0.390 -0.591 1.091
0.393 -0.590 1.090
0.396 -0.591 1.090
0.399 -0.591 1.091
0.402 -0.591 1.090
0.405 -0.591 1.090
0.408 -0.591 1.091
0.411 -0.591 1.090
0.414 -0.591 1.090
0.417 -0.591 1.090
0.420 -0.591 1.090
0.423 -0.591 1.090
0.426 -0.591 1.089
0.429 -0.591 1.088
0.432 -0.591 1.088
0.435 -0.591 1.089
0.438 -0.591 1.088
0.441 -0.590 1.087
0.444 -0.590 1.087
0.446 -0.590 1.086
0.449 -0.590 1.086
0.452 -0.590 1.085
0.455 -0.590 1.085
0.458 -0.590 1.084
0.461 -0.590 1.085
0.464 -0.590 1.085
0.468 -0.591 1.085
0.471 -0.591 1.086
0.474 -0.591 1.086
0.477 -0.591 1.086
0.480 -0.592 1.086
0.484 -0.592 1.086
0.487 -0.592 1.087
0.490 -0.592 1.087
0.492 -0.592 1.085
0.496 -0.592 1.085
0.499 -0.592 1.086
0.502 -0.592 1.085
0.505 -0.592 1.085
0.507 -0.592 1.084
0.511 -0.592 1.084
0.514 -0.592 1.084
0.517 -0.593 1.085
0.520 -0.592 1.083
0.522 -0.592 1.082
0.525 -0.591 1.081
0.528 -0.591 1.081
0.531 -0.592 1.081
0.534 -0.592 1.081
0.538 -0.592 1.082
0.541 -0.592 1.081
0.543 -0.592 1.080
0.546 -0.592 1.080
0.550 -0.592 1.080
0.552 -0.592 1.079
0.555 -0.592 1.079
0.558 -0.592 1.078
0.561 -0.591 1.077
0.563 -0.591 1.076
0.566 -0.590 1.074
0.569 -0.590 1.073
0.571 -0.589 1.071
0.574 -0.590 1.072
0.578 -0.591 1.073
0.582 -0.592 1.074
0.584 -0.591 1.072
0.587 -0.591 1.072
0.588 -0.589 1.069
0.592 -0.589 1.069
0.595 -0.590 1.069
0.600 -0.591 1.071
0.603 -0.592 1.071
0.605 -0.591 1.070
0.609 -0.592 1.071
0.612 -0.592 1.071
0.615 -0.592 1.070
0.616 -0.590 1.067
0.620 -0.591 1.067
0.623 -0.591 1.067
0.626 -0.591 1.067
0.629 -0.591 1.067
0.632 -0.591 1.065
0.635 -0.591 1.065
0.638 -0.591 1.064
0.640 -0.590 1.062
0.642 -0.589 1.061
0.646 -0.591 1.062
0.651 -0.592 1.064
0.654 -0.592 1.063
0.657 -0.592 1.063
0.661 -0.593 1.063
0.663 -0.592 1.062
0.667 -0.593 1.063
0.669 -0.592 1.061
0.671 -0.592 1.059
0.673 -0.591 1.057
0.677 -0.591 1.057
0.680 -0.591 1.057
0.684 -0.592 1.058
0.686 -0.592 1.056
0.689 -0.591 1.056
0.691 -0.591 1.054
0.697 -0.593 1.057
0.702 -0.595 1.060
0.707 -0.596 1.061
0.707 -0.594 1.057
0.708 -0.592 1.053
0.710 -0.591 1.051
0.715 -0.593 1.053
0.718 -0.593 1.052
0.720 -0.593 1.051
0.720 -0.590 1.046
0.725 -0.592 1.048
0.730 -0.593 1.049
0.734 -0.594 1.050
0.736 -0.593 1.049
0.739 -0.593 1.047
0.741 -0.592 1.045
0.744 -0.593 1.045
0.000 0.000 0.000
0.000 0.000 0.000
0.000 0.000 0.000
0.000 0.000 0.000
0.000 0.000 0.000
0.000 0.000 0.000
0.000 0.000 0.000
0.000 0.000 0.000
0.000 0.000 0.000
0.000 0.000 0.000
0.000 0.000 0.000
0.000 0.000 0.000
0.000 0.000 0.000
0.000 0.000 0.000
0.000 0.000 0.000
0.000 0.000 0.000
0.000 0.000 0.000
0.000 0.000 0.000
0.000 0.000 0.000
0.000 0.000 0.000
0.000 0.000 0.000
0.000 0.000 0.000
0.000 0.000 0.000
0.000 0.000 0.000
0.000 0.000 0.000
0.000 0.000 0.000
0.000 0.000 0.000
0.000 0.000 0.000
0.000 0.000 0.000
0.000 0.000 0.000
0.000 0.000 0.000
0.000 0.000 0.000
0.000 0.000 0.000
0.000 0.000 0.000
0.000 0.000 0.000
0.000 0.000 0.000
0.000 0.000 0.000
0.000 0.000 0.000
0.000 0.000 0.000
0.000 0.000 0.000
0.000 0.000 0.000
0.000 0.000 0.000
0.000 0.000 0.000
0.000 0.000 0.000
0.000 0.000 0.000
0.000 0.000 0.000
0.000 0.000 0.000
0.000 0.000 0.000
0.000 0.000 0.000
0.000 0.000 0.000
0.000 0.000 0.000
0.000 0.000 0.000
0.000 0.000 0.000
0.000 0.000 0.000
0.000 0.000 0.000
0.000 0.000 0.000
0.000 0.000 0.000
0.000 0.000 0.000
0.000 0.000 0.000
0.000 0.000 0.000
0.000 0.000 0.000
0.000 0.000 0.000
0.000 0.000 0.000
0.000 0.000 0.000
-0.286 -0.287 0.518
0.000 0.000 0.000
0.000 0.000 0.000
0.000 0.000 0.000
0.000 0.000 0.000
0.000 0.000 0.000
0.000 0.000 0.000
0.000 0.000 0.000
0.000 0.000 0.000
0.000 0.000 0.000
0.000 0.000 0.000
0.000 0.000 0.000
0.000 0.000 0.000
0.000 0.000 0.000
0.000 0.000 0.000
0.000 0.000 0.000
0.000 0.000 0.000
0.000 0.000 0.000
-0.255 -0.282 0.513
-0.254 -0.282 0.513
-0.255 -0.285 0.517
-0.256 -0.287 0.522
-0.257 -0.291 0.528
-0.257 -0.293 0.532
-0.262 -0.299 0.544
-0.271 -0.312 0.568
-0.292 -0.338 0.615
-0.315 -0.366 0.667
-0.334 -0.391 0.712
-0.342 -0.402 0.733
-0.344 -0.407 0.742
-0.344 -0.410 0.747
-0.344 -0.413 0.752
-0.344 -0.415 0.757
-0.343 -0.417 0.760
-0.342 -0.417 0.761
-0.340 -0.417 0.762
-0.339 -0.419 0.764
-0.338 -0.421 0.768
-0.338 -0.422 0.771
-0.337 -0.424 0.775
-0.336 -0.426 0.779
-0.335 -0.428 0.782
-0.334 -0.429 0.784
-0.334 -0.432 0.789
-0.334 -0.434 0.793
-0.333 -0.436 0.798
-0.332 -0.437 0.800
-0.331 -0.439 0.804
-0.330 -0.440 0.806
-0.329 -0.443 0.811
-0.328 -0.444 0.814
-0.327 -0.446 0.817
-0.326 -0.447 0.818
-0.324 -0.447 0.820
-0.322 -0.448 0.820
-0.320 -0.449 0.822
-0.319 -0.450 0.824
-0.317 -0.451 0.827
-0.316 -0.452 0.829
-0.314 -0.453 0.830
-0.312 -0.452 0.830
-0.309 -0.452 0.829
-0.306 -0.451 0.828
-0.304 -0.451 0.828
-0.302 -0.451 0.828
-0.299 -0.451 0.827
-0.296 -0.450 0.826
-0.293 -0.448 0.824
-0.289 -0.446 0.820
-0.285 -0.443 0.813
-0.266 -0.416 0.765
-0.233 -0.368 0.677
-0.221 -0.352 0.646
-0.215 -0.345 0.635
-0.213 -0.344 0.632
-0.211 -0.344 0.632
-0.209 -0.343 0.632
-0.207 -0.343 0.631
-0.205 -0.343 0.630
-0.203 -0.342 0.630
-0.201 -0.342 0.629
-0.199 -0.341 0.628
-0.197 -0.341 0.627
-0.195 -0.340 0.626
-0.193 -0.339 0.625
-0.191 -0.339 0.625
-0.189 -0.339 0.624
-0.188 -0.339 0.625
-0.186 -0.339 0.624
-0.184 -0.339 0.624
-0.182 -0.339 0.624
-0.181 -0.339 0.624
-0.179 -0.339 0.624
-0.177 -0.339 0.625
-0.178 -0.343 0.632
-0.178 -0.347 0.640
-0.177 -0.349 0.643
-0.176 -0.349 0.644
-0.178 -0.358 0.660
-0.189 -0.383 0.707
-0.198 -0.405 0.747
-0.201 -0.417 0.769
-0.208 -0.436 0.805
-0.226 -0.478 0.883
-0.234 -0.500 0.922
-0.234 -0.506 0.934
-0.233 -0.509 0.939
-0.232 -0.512 0.946
-0.230 -0.514 0.949
-0.227 -0.514 0.949
-0.225 -0.514 0.948
-0.222 -0.514 0.949
-0.220 -0.515 0.951
-0.218 -0.516 0.952
-0.216 -0.516 0.953
-0.213 -0.517 0.955
-0.211 -0.517 0.955
-0.208 -0.517 0.955
-0.205 -0.516 0.954
-0.202 -0.516 0.953
-0.200 -0.516 0.953
-0.197 -0.516 0.953
-0.195 -0.516 0.953
-0.192 -0.516 0.953
-0.190 -0.518 0.957
-0.188 -0.520 0.960
-0.187 -0.522 0.965
-0.185 -0.524 0.968
-0.183 -0.527 0.975
-0.182 -0.532 0.983
-0.181 -0.538 0.994
-0.182 -0.547 1.011
-0.182 -0.557 1.031
-0.181 -0.563 1.041
-0.179 -0.565 1.046
-0.177 -0.566 1.046
-0.174 -0.566 1.048
-0.172 -0.568 1.050
-0.166 -0.558 1.033
-0.158 -0.542 1.003
-0.153 -0.535 0.989
-0.150 -0.533 0.985
-0.147 -0.532 0.984
-0.145 -0.532 0.984
-0.142 -0.532 0.984
-0.139 -0.532 0.984
-0.137 -0.532 0.984
-0.134 -0.532 0.984
-0.131 -0.532 0.984
-0.129 -0.532 0.984
-0.126 -0.532 0.984
-0.123 -0.532 0.985
-0.120 -0.531 0.983
-0.118 -0.531 0.982
-0.115 -0.530 0.982
-0.112 -0.530 0.981
-0.109 -0.530 0.980
-0.107 -0.530 0.980
-0.104 -0.529 0.980
-0.101 -0.529 0.979
-0.099 -0.529 0.979
-0.096 -0.529 0.979
-0.093 -0.529 0.979
-0.091 -0.528 0.978
-0.088 -0.528 0.977
-0.085 -0.528 0.977
-0.083 -0.527 0.976
-0.080 -0.527 0.976
-0.077 -0.527 0.976
-0.074 -0.527 0.975
-0.072 -0.526 0.974
-0.069 -0.526 0.974
-0.066 -0.526 0.973
-0.064 -0.525 0.972
-0.061 -0.525 0.972
-0.058 -0.525 0.972
-0.056 -0.525 0.972
-0.053 -0.525 0.971
-0.050 -0.524 0.971
-0.048 -0.525 0.971
-0.045 -0.524 0.971
-0.043 -0.524 0.971
-0.040 -0.524 0.970
-0.037 -0.524 0.970
-0.035 -0.523 0.969
-0.032 -0.523 0.968
-0.029 -0.522 0.967
-0.027 -0.522 0.967
-0.024 -0.522 0.967
-0.021 -0.522 0.967
-0.019 -0.521 0.965
-0.016 -0.521 0.965
-0.013 -0.521 0.964
-0.011 -0.521 0.964
-0.008 -0.520 0.963
-0.006 -0.520 0.963
-0.003 -0.519 0.962
0.000 -0.519 0.961
0.002 -0.519 0.960
0.005 -0.518 0.959
0.007 -0.517 0.958
0.010 -0.517 0.957
0.013 -0.517 0.957
0.015 -0.516 0.956
0.018 -0.516 0.955
0.020 -0.516 0.955
0.023 -0.515 0.954
0.026 -0.516 0.956
0.028 -0.519 0.960
0.031 -0.526 0.973
0.035 -0.538 0.997
0.038 -0.547 1.012
0.041 -0.547 1.013
0.044 -0.548 1.015
0.047 -0.553 1.024
0.050 -0.557 1.030
0.053 -0.559 1.035
0.056 -0.566 1.047
0.060 -0.572 1.059
0.063 -0.574 1.063
0.066 -0.572 1.060
0.068 -0.564 1.044
0.068 -0.545 1.010
0.068 -0.523 0.968
0.068 -0.507 0.938
0.072 -0.516 0.956
0.077 -0.531 0.983
0.081 -0.539 0.997
0.083 -0.539 0.997
0.087 -0.545 1.008
0.090 -0.547 1.013
0.093 -0.546 1.011
0.096 -0.547 1.012
0.099 -0.550 1.017
0.102 -0.551 1.020
0.099 -0.520 0.962
0.099 -0.506 0.936
0.100 -0.502 0.929
0.103 -0.501 0.927
0.105 -0.500 0.926
0.108 -0.500 0.925
0.110 -0.500 0.925
0.112 -0.499 0.924
0.115 -0.499 0.923
0.117 -0.499 0.922
0.120 -0.498 0.922
0.122 -0.498 0.921
0.124 -0.497 0.919
0.127 -0.496 0.918
0.129 -0.495 0.916
0.131 -0.495 0.915
0.134 -0.494 0.914
0.136 -0.494 0.913
0.139 -0.494 0.915
0.142 -0.496 0.917
0.145 -0.500 0.925
0.150 -0.508 0.940
0.158 -0.527 0.975
0.166 -0.544 1.007
0.173 -0.557 1.030
0.179 -0.568 1.050
0.185 -0.576 1.064
0.189 -0.580 1.073
0.193 -0.582 1.077
0.196 -0.583 1.078
0.199 -0.583 1.079
0.202 -0.584 1.079
0.205 -0.584 1.079
0.208 -0.584 1.080
0.211 -0.585 1.081
0.214 -0.585 1.082
0.217 -0.586 1.082
0.220 -0.585 1.082
0.223 -0.585 1.081
0.226 -0.585 1.081
0.229 -0.585 1.081
0.232 -0.586 1.082
0.235 -0.586 1.082
0.238 -0.586 1.083
0.241 -0.587 1.084
0.244 -0.587 1.083
0.247 -0.586 1.082
0.250 -0.586 1.082
0.253 -0.587 1.083
0.256 -0.587 1.083
0.259 -0.587 1.083
0.262 -0.587 1.083
0.265 -0.587 1.083
0.268 -0.587 1.083
0.270 -0.586 1.082
0.273 -0.586 1.082
0.277 -0.587 1.083
0.280 -0.588 1.084
0.283 -0.588 1.084
0.286 -0.588 1.084
0.289 -0.588 1.085
0.292 -0.588 1.084
0.295 -0.588 1.084
0.298 -0.588 1.084
0.301 -0.589 1.085
0.304 -0.589 1.086
0.307 -0.589 1.085
0.310 -0.589 1.085
0.313 -0.589 1.086
0.316 -0.589 1.086
0.319 -0.589 1.086
0.322 -0.589 1.086
0.325 -0.589 1.086
0.328 -0.590 1.086
0.331 -0.589 1.086
0.334 -0.589 1.086
0.337 -0.590 1.087
0.341 -0.591 1.088
0.344 -0.591 1.088
0.347 -0.591 1.088
0.350 -0.591 1.088
0.353 -0.591 1.088
0.356 -0.591 1.087
0.359 -0.591 1.087
0.362 -0.591 1.088
0.365 -0.591 1.088
0.368 -0.591 1.088
0.371 -0.591 1.087
0.373 -0.591 1.086
0.376 -0.590 1.085
0.379 -0.591 1.086
0.383 -0.591 1.087
0.386 -0.592 1.087
0.388 -0.591 1.085
0.391 -0.591 1.085
0.394 -0.591 1.085
0.398 -0.592 1.086
0.401 -0.592 1.086
0.404 -0.592 1.087
0.407 -0.592 1.086
0.410 -0.592 1.086
0.412 -0.591 1.085
0.415 -0.591 1.085
0.418 -0.591 1.084
0.421 -0.591 1.084
0.424 -0.591 1.084
0.427 -0.591 1.084
0.430 -0.591 1.083
0.433 -0.592 1.084
0.436 -0.591 1.083
0.439 -0.591 1.083
0.442 -0.591 1.082
0.445 -0.591 1.081
0.447 -0.590 1.080
0.450 -0.590 1.080
0.453 -0.590 1.080
0.457 -0.591 1.081
0.460 -0.591 1.081
0.463 -0.591 1.081
0.466 -0.591 1.081
0.469 -0.592 1.081
0.472 -0.592 1.081
0.476 -0.593 1.082
0.479 -0.592 1.082
0.482 -0.593 1.083
0.485 -0.593 1.082
0.488 -0.593 1.083
0.491 -0.593 1.081
0.493 -0.592 1.080
0.496 -0.592 1.079
0.499 -0.592 1.079
0.502 -0.592 1.078
0.505 -0.592 1.078
0.508 -0.592 1.078
0.511 -0.593 1.079
0.514 -0.593 1.078
0.517 -0.593 1.078
0.520 -0.592 1.076
0.523 -0.592 1.076
0.526 -0.592 1.076
0.529 -0.592 1.076
0.532 -0.592 1.075
0.535 -0.592 1.076
0.537 -0.591 1.074
0.540 -0.591 1.073
0.543 -0.591 1.073
0.547 -0.592 1.074
0.550 -0.592 1.074
0.553 -0.593 1.074
0.556 -0.593 1.074
0.559 -0.593 1.074
0.561 -0.591 1.070
0.563 -0.591 1.069
0.565 -0.590 1.067
0.568 -0.590 1.067
0.572 -0.590 1.067
0.576 -0.591 1.069
0.579 -0.592 1.069
0.581 -0.591 1.067
0.584 -0.591 1.067
0.587 -0.590 1.065
0.590 -0.590 1.065
0.593 -0.591 1.065
0.597 -0.592 1.067
0.601 -0.593 1.068
0.603 -0.592 1.066
0.607 -0.592 1.066
0.609 -0.592 1.066
0.612 -0.592 1.065
0.614 -0.591 1.063
0.617 -0.591 1.062
0.620 -0.591 1.061
0.624 -0.592 1.062
0.626 -0.591 1.060
0.629 -0.591 1.059
0.631 -0.590 1.057
0.634 -0.591 1.058
0.637 -0.590 1.057
0.640 -0.590 1.057
0.643 -0.591 1.057
0.648 -0.592 1.058
0.650 -0.591 1.056
0.654 -0.592 1.058
0.658 -0.593 1.058
0.661 -0.593 1.058
0.663 -0.592 1.056
0.667 -0.593 1.057
0.669 -0.592 1.055
0.672 -0.593 1.055
0.673 -0.591 1.051
0.675 -0.590 1.049
0.678 -0.590 1.049
0.683 -0.591 1.050
0.684 -0.590 1.047
0.690 -0.592 1.050
0.695 -0.595 1.054
0.700 -0.596 1.056
0.702 -0.596 1.054
0.704 -0.594 1.051
0.704 -0.592 1.047
0.708 -0.593 1.047
0.713 -0.594 1.050
0.716 -0.594 1.049
0.717 -0.593 1.045
0.720 -0.592 1.044
0.724 -0.593 1.045
0.730 -0.596 1.049
0.732 -0.596 1.047
0.735 -0.595 1.046
0.736 -0.594 1.042
0.738 -0.593 1.040
0.742 -0.593 1.041
0.000 0.000 0.000
0.000 0.000 0.000
0.000 0.000 0.000
0.000 0.000 0.000
0.000 0.000 0.000
0.000 0.000 0.000
0.000 0.000 0.000
0.000 0.000 0.000
0.000 0.000 0.000
0.000 0.000 0.000
0.000 0.000 0.000
0.000 0.000 0.000
0.000 0.000 0.000
0.000 0.000 0.000
0.000 0.000 0.000
0.000 0.000 0.000
0.000 0.000 0.000
0.000 0.000 0.000
0.000 0.000 0.000
0.000 0.000 0.000
0.000 0.000 0.000
0.000 0.000 0.000
0.000 0.000 0.000
0.000 0.000 0.000
0.000 0.000 0.000
0.000 0.000 0.000
0.000 0.000 0.000
0.000 0.000 0.000
0.000 0.000 0.000
0.000 0.000 0.000
0.000 0.000 0.000
0.000 0.000 0.000
0.000 0.000 0.000
0.000 0.000 0.000
0.000 0.000 0.000
0.000 0.000 0.000
0.000 0.000 0.000
0.000 0.000 0.000
0.000 0.000 0.000
0.000 0.000 0.000
0.000 0.000 0.000
0.000 0.000 0.000
0.000 0.000 0.000
0.000 0.000 0.000
0.000 0.000 0.000
0.000 0.000 0.000
0.000 0.000 0.000
0.000 0.000 0.000
0.000 0.000 0.000
0.000 0.000 0.000
0.000 0.000 0.000
0.000 0.000 0.000
0.000 0.000 0.000
0.000 0.000 0.000
0.000 0.000 0.000
0.000 0.000 0.000
0.000 0.000 0.000
0.000 0.000 0.000
0.000 0.000 0.000
0.000 0.000 0.000
0.000 0.000 0.000
0.000 0.000 0.000
0.000 0.000 0.000
0.000 0.000 0.000
-0.288 -0.291 0.522
-0.284 -0.288 0.517
0.000 0.000 0.000
0.000 0.000 0.000
0.000 0.000 0.000
0.000 0.000 0.000
0.000 0.000 0.000
0.000 0.000 0.000
0.000 0.000 0.000
0.000 0.000 0.000
0.000 0.000 0.000
0.000 0.000 0.000
0.000 0.000 0.000
0.000 0.000 0.000
0.000 0.000 0.000
0.000 0.000 0.000
-0.255 -0.281 0.507
-0.256 -0.283 0.511
-0.255 -0.283 0.512
-0.255 -0.285 0.515
-0.255 -0.286 0.517
-0.255 -0.288 0.521
-0.256 -0.291 0.526
-0.257 -0.294 0.532
-0.260 -0.298 0.540
-0.271 -0.313 0.567
-0.288 -0.335 0.606
-0.313 -0.366 0.662
-0.333 -0.392 0.710
-0.341 -0.404 0.731
-0.343 -0.409 0.741
-0.344 -0.412 0.747
-0.344 -0.414 0.752
-0.344 -0.417 0.757
-0.343 -0.418 0.759
-0.341 -0.418 0.759
-0.339 -0.419 0.760
-0.339 -0.421 0.764
-0.339 -0.423 0.769
-0.338 -0.425 0.772
-0.337 -0.426 0.775
-0.336 -0.428 0.779
-0.336 -0.430 0.782
-0.334 -0.431 0.785
-0.334 -0.433 0.788
-0.333 -0.436 0.793
-0.333 -0.438 0.797
-0.332 -0.440 0.801
-0.331 -0.441 0.803
-0.330 -0.443 0.806
-0.329 -0.445 0.810
-0.328 -0.446 0.813
-0.327 -0.448 0.816
-0.325 -0.448 0.817
-0.324 -0.449 0.819
-0.322 -0.450 0.821
-0.320 -0.451 0.823
-0.319 -0.452 0.824
-0.317 -0.453 0.826
-0.315 -0.453 0.827
-0.313 -0.454 0.828
-0.311 -0.454 0.829
-0.309 -0.454 0.829
-0.307 -0.454 0.830
-0.304 -0.454 0.829
-0.302 -0.454 0.829
-0.299 -0.453 0.828
-0.297 -0.453 0.827
-0.294 -0.452 0.825
-0.291 -0.450 0.823
-0.286 -0.446 0.816
-0.268 -0.422 0.772
-0.235 -0.373 0.683
-0.222 -0.355 0.649
-0.215 -0.347 0.635
-0.213 -0.346 0.633
-0.211 -0.345 0.632
-0.209 -0.345 0.632
-0.207 -0.345 0.631
-0.205 -0.345 0.631
-0.203 -0.344 0.630
-0.201 -0.344 0.629
-0.199 -0.343 0.628
-0.197 -0.343 0.627
-0.195 -0.342 0.627
-0.193 -0.341 0.625
-0.191 -0.341 0.625
-0.189 -0.341 0.624
-0.188 -0.341 0.625
-0.186 -0.341 0.625
-0.184 -0.341 0.624
-0.182 -0.341 0.624
-0.181 -0.341 0.624
-0.179 -0.341 0.625
-0.177 -0.341 0.625
-0.178 -0.345 0.633
-0.178 -0.349 0.640
-0.177 -0.351 0.643
-0.176 -0.351 0.644
-0.178 -0.359 0.659
-0.188 -0.384 0.704
-0.197 -0.407 0.747
-0.201 -0.418 0.768
-0.208 -0.438 0.803
-0.225 -0.479 0.880
-0.233 -0.501 0.920
-0.234 -0.508 0.932
-0.233 -0.511 0.939
-0.232 -0.514 0.944
-0.229 -0.515 0.945
-0.227 -0.515 0.945
-0.224 -0.515 0.946
-0.222 -0.516 0.947
-0.220 -0.516 0.949
-0.217 -0.517 0.950
-0.215 -0.517 0.951
-0.213 -0.518 0.951
-0.210 -0.518 0.953
-0.207 -0.518 0.951
-0.205 -0.517 0.950
-0.202 -0.517 0.949
-0.199 -0.517 0.950
-0.197 -0.517 0.949
-0.194 -0.517 0.950
-0.191 -0.517 0.950
-0.190 -0.519 0.955
-0.188 -0.521 0.958
-0.186 -0.524 0.963
-0.184 -0.526 0.966
-0.183 -0.530 0.974
-0.182 -0.534 0.982
-0.181 -0.540 0.993
-0.182 -0.549 1.010
-0.182 -0.559 1.028
-0.181 -0.564 1.037
-0.178 -0.565 1.040
-0.176 -0.565 1.040
-0.173 -0.566 1.042
-0.171 -0.568 1.044
-0.166 -0.561 1.032
-0.159 -0.546 1.004
-0.154 -0.538 0.990
-0.150 -0.535 0.985
-0.147 -0.535 0.984
-0.145 -0.534 0.984
-0.142 -0.535 0.984
-0.139 -0.535 0.984
-0.137 -0.535 0.984
-0.134 -0.535 0.984
-0.131 -0.535 0.984
-0.129 -0.535 0.984
-0.126 -0.535 0.985
-0.123 -0.535 0.985
-0.121 -0.534 0.983
-0.118 -0.534 0.983
-0.115 -0.533 0.982
-0.112 -0.533 0.982
-0.110 -0.533 0.980
-0.107 -0.532 0.980
-0.104 -0.532 0.980
-0.101 -0.532 0.979
-0.099 -0.532 0.979
-0.096 -0.532 0.980
-0.093 -0.532 0.980
-0.091 -0.532 0.979
-0.088 -0.531 0.978
-0.085 -0.531 0.977
-0.083 -0.530 0.977
-0.080 -0.530 0.976
-0.077 -0.530 0.976
-0.075 -0.530 0.975
-0.072 -0.530 0.975
-0.069 -0.529 0.975
-0.067 -0.529 0.975
-0.064 -0.528 0.973
-0.061 -0.528 0.973
-0.058 -0.528 0.973
-0.056 -0.528 0.973
-0.053 -0.528 0.972
-0.050 -0.527 0.971
-0.048 -0.527 0.971
-0.045 -0.527 0.972
-0.043 -0.527 0.971
-0.040 -0.527 0.971
-0.037 -0.527 0.971
-0.035 -0.527 0.970
-0.032 -0.526 0.969
-0.029 -0.526 0.969
-0.027 -0.526 0.969
-0.024 -0.526 0.968
-0.021 -0.525 0.967
-0.019 -0.524 0.966
-0.016 -0.524 0.965
-0.013 -0.524 0.965
-0.011 -0.524 0.965
-0.008 -0.523 0.964
-0.006 -0.523 0.963
-0.003 -0.522 0.962
0.000 -0.522 0.962
0.002 -0.522 0.961
0.005 -0.521 0.960
0.007 -0.521 0.959
0.010 -0.520 0.958
0.013 -0.520 0.958
0.015 -0.519 0.957
0.018 -0.519 0.956
0.020 -0.519 0.956
0.023 -0.519 0.956
0.026 -0.519 0.957
0.028 -0.522 0.961
0.031 -0.529 0.974
0.035 -0.542 0.998
0.038 -0.550 1.014
0.041 -0.550 1.013
0.044 -0.551 1.015
0.047 -0.556 1.024
0.050 -0.560 1.032
0.053 -0.563 1.037
0.056 -0.569 1.049
0.060 -0.575 1.059
0.063 -0.577 1.062
0.066 -0.574 1.058
0.067 -0.564 1.040
0.068 -0.546 1.005
0.068 -0.523 0.964
0.068 -0.509 0.938
0.072 -0.520 0.957
0.077 -0.535 0.985
0.080 -0.538 0.991
0.084 -0.543 1.001
0.087 -0.546 1.006
0.090 -0.548 1.009
0.093 -0.548 1.008
0.095 -0.548 1.008
0.099 -0.552 1.017
0.102 -0.554 1.020
0.099 -0.523 0.962
0.099 -0.509 0.937
0.101 -0.505 0.930
0.103 -0.504 0.928
0.105 -0.504 0.927
0.108 -0.503 0.926
0.110 -0.503 0.925
0.113 -0.502 0.925
0.115 -0.502 0.924
0.117 -0.501 0.923
0.120 -0.501 0.922
0.122 -0.501 0.922
0.125 -0.500 0.920
0.127 -0.499 0.919
0.129 -0.498 0.917
0.132 -0.498 0.916
0.134 -0.497 0.915
0.136 -0.497 0.914
0.139 -0.497 0.915
0.142 -0.499 0.918
0.145 -0.503 0.925
0.150 -0.511 0.939
0.158 -0.530 0.974
0.166 -0.547 1.006
0.173 -0.559 1.029
0.179 -0.570 1.049
0.184 -0.577 1.062
0.189 -0.582 1.070
0.192 -0.583 1.073
0.195 -0.584 1.074
0.198 -0.584 1.073
0.201 -0.584 1.074
0.204 -0.585 1.075
0.207 -0.585 1.076
0.210 -0.586 1.077
0.213 -0.586 1.078
0.216 -0.586 1.078
0.219 -0.586 1.078
0.222 -0.586 1.077
0.225 -0.586 1.076
0.228 -0.586 1.077
0.231 -0.586 1.077
0.234 -0.586 1.077
0.237 -0.587 1.078
0.240 -0.588 1.080
0.243 -0.588 1.080
0.246 -0.588 1.079
0.249 -0.587 1.079
0.252 -0.588 1.079
0.255 -0.588 1.080
0.258 -0.588 1.080
0.261 -0.588 1.080
0.264 -0.588 1.080
0.267 -0.588 1.079
0.270 -0.588 1.079
0.273 -0.588 1.079
0.276 -0.588 1.079
0.279 -0.588 1.080
0.282 -0.589 1.080
0.285 -0.589 1.081
0.288 -0.589 1.081
0.291 -0.589 1.081
0.294 -0.589 1.081
0.297 -0.589 1.081
0.300 -0.590 1.082
0.303 -0.590 1.082
0.306 -0.590 1.082
0.309 -0.590 1.081
0.312 -0.590 1.082
0.315 -0.590 1.082
0.318 -0.590 1.082
0.321 -0.590 1.081
0.324 -0.590 1.081
0.327 -0.590 1.081
0.330 -0.590 1.081
0.333 -0.590 1.081
0.336 -0.591 1.083
0.340 -0.592 1.084
