ply
format ascii 1.0
comment VCGLIB generated
element vertex 2492
property float x
property float y
property float z
end_header
-0.347 -0.344 0.856
-0.345 -0.345 0.857
-0.343 -0.345 0.858
-0.341 -0.346 0.859
-0.339 -0.346 0.861
-0.337 -0.347 0.862
-0.335 -0.347 0.863
-0.333 -0.347 0.864
-0.331 -0.347 0.864
-0.329 -0.347 0.864
-0.326 -0.347 0.864
-0.324 -0.347 0.864
-0.321 -0.347 0.864
-0.319 -0.347 0.863
-0.316 -0.346 0.862
-0.313 -0.346 0.860
-0.310 -0.345 0.859
-0.307 -0.344 0.856
-0.303 -0.342 0.851
0.000 0.000 0.000
0.000 0.000 0.000
-0.221 -0.256 0.637
-0.213 -0.248 0.617
-0.209 -0.246 0.612
-0.207 -0.246 0.612
-0.206 -0.245 0.611
-0.204 -0.246 0.612
-0.203 -0.246 0.612
-0.201 -0.246 0.613
-0.200 -0.246 0.614
-0.199 -0.247 0.616
-0.197 -0.246 0.614
-0.195 -0.246 0.614
-0.192 -0.245 0.611
-0.191 -0.245 0.611
-0.189 -0.245 0.611
-0.187 -0.245 0.611
-0.186 -0.245 0.611
-0.184 -0.245 0.612
-0.183 -0.245 0.612
-0.181 -0.245 0.612
-0.179 -0.245 0.611
-0.177 -0.245 0.611
-0.176 -0.245 0.611
-0.175 -0.247 0.615
-0.175 -0.248 0.619
-0.174 -0.249 0.621
-0.173 -0.251 0.625
-0.175 -0.257 0.641
-0.184 -0.272 0.678
-0.191 -0.286 0.713
-0.196 -0.296 0.739
-0.205 -0.313 0.780
-0.220 -0.339 0.846
-0.228 -0.355 0.884
-0.233 -0.367 0.916
-0.236 -0.376 0.938
-0.238 -0.382 0.954
-0.239 -0.388 0.968
-0.238 -0.392 0.977
-0.238 -0.395 0.984
-0.237 -0.398 0.992
-0.235 -0.399 0.996
-0.233 -0.400 0.997
-0.231 -0.401 1.001
-0.230 -0.404 1.009
-0.230 -0.409 1.020
-0.230 -0.414 1.033
-0.230 -0.421 1.049
-0.233 -0.431 1.076
-0.241 -0.450 1.123
-0.250 -0.474 1.182
-0.255 -0.490 1.223
-0.257 -0.500 1.247
-0.255 -0.503 1.254
-0.251 -0.502 1.253
-0.246 -0.498 1.242
-0.239 -0.491 1.224
-0.234 -0.488 1.217
-0.231 -0.487 1.215
-0.227 -0.486 1.213
-0.223 -0.485 1.210
-0.220 -0.484 1.209
-0.216 -0.484 1.208
-0.213 -0.484 1.208
-0.209 -0.484 1.207
-0.206 -0.484 1.207
-0.203 -0.484 1.207
-0.200 -0.484 1.208
-0.196 -0.483 1.204
0.000 0.000 0.000
-0.157 -0.401 1.000
-0.152 -0.395 0.985
-0.149 -0.393 0.980
-0.146 -0.392 0.978
-0.143 -0.391 0.977
-0.140 -0.391 0.976
-0.138 -0.391 0.975
-0.135 -0.391 0.975
-0.132 -0.390 0.974
-0.129 -0.390 0.974
-0.127 -0.390 0.973
-0.124 -0.390 0.973
-0.121 -0.389 0.971
-0.119 -0.389 0.970
-0.116 -0.388 0.969
-0.113 -0.388 0.969
-0.110 -0.388 0.968
-0.108 -0.388 0.968
-0.105 -0.388 0.968
-0.103 -0.388 0.969
-0.100 -0.387 0.967
-0.097 -0.387 0.966
-0.094 -0.387 0.965
-0.092 -0.387 0.965
-0.089 -0.386 0.964
-0.086 -0.386 0.964
-0.084 -0.386 0.963
-0.081 -0.386 0.963
-0.078 -0.386 0.962
-0.076 -0.385 0.961
-0.073 -0.385 0.961
-0.071 -0.385 0.960
-0.068 -0.384 0.960
-0.065 -0.384 0.959
-0.063 -0.384 0.959
-0.060 -0.384 0.958
-0.057 -0.384 0.958
-0.055 -0.384 0.958
-0.052 -0.384 0.958
-0.050 -0.384 0.958
-0.047 -0.384 0.957
-0.044 -0.383 0.957
-0.042 -0.383 0.956
-0.039 -0.383 0.956
-0.037 -0.383 0.955
-0.034 -0.383 0.955
-0.031 -0.382 0.954
-0.029 -0.382 0.954
-0.026 -0.382 0.953
-0.024 -0.382 0.953
-0.021 -0.381 0.952
-0.018 -0.381 0.952
-0.016 -0.381 0.951
-0.013 -0.381 0.951
-0.011 -0.381 0.950
-0.008 -0.380 0.949
-0.006 -0.380 0.949
-0.003 -0.380 0.947
0.000 -0.379 0.947
0.002 -0.379 0.946
0.005 -0.379 0.946
0.007 -0.379 0.946
0.010 -0.379 0.945
0.012 -0.378 0.944
0.015 -0.378 0.944
0.017 -0.378 0.943
0.020 -0.377 0.942
0.023 -0.377 0.942
0.025 -0.378 0.943
0.028 -0.380 0.947
0.031 -0.384 0.957
0.034 -0.391 0.976
0.037 -0.394 0.983
0.039 -0.393 0.982
0.042 -0.393 0.981
0.046 -0.401 1.001
0.049 -0.406 1.013
0.052 -0.405 1.011
0.054 -0.403 1.005
0.056 -0.398 0.993
0.058 -0.391 0.977
0.061 -0.394 0.983
0.065 -0.405 1.010
0.067 -0.401 1.002
0.000 0.000 0.000
0.056 -0.310 0.775
0.058 -0.309 0.772
0.062 -0.318 0.794
0.069 -0.342 0.854
0.074 -0.356 0.887
0.079 -0.367 0.917
0.083 -0.376 0.939
0.087 -0.381 0.950
0.091 -0.386 0.964
0.095 -0.391 0.976
0.099 -0.399 0.995
0.097 -0.379 0.947
0.098 -0.373 0.930
0.100 -0.370 0.923
0.102 -0.369 0.920
0.104 -0.369 0.920
0.107 -0.368 0.920
0.109 -0.368 0.918
0.111 -0.368 0.918
0.114 -0.368 0.917
0.116 -0.367 0.917
0.119 -0.367 0.916
0.121 -0.367 0.916
0.123 -0.367 0.915
0.126 -0.367 0.915
0.128 -0.366 0.914
0.130 -0.366 0.913
0.133 -0.365 0.911
0.135 -0.365 0.911
0.138 -0.365 0.912
0.141 -0.366 0.914
0.145 -0.370 0.924
0.151 -0.381 0.951
0.162 -0.400 0.998
0.170 -0.414 1.032
0.177 -0.425 1.059
0.183 -0.430 1.074
0.186 -0.432 1.078
0.189 -0.432 1.079
0.192 -0.433 1.080
0.195 -0.433 1.080
0.198 -0.433 1.080
0.201 -0.432 1.079
0.204 -0.432 1.079
0.207 -0.432 1.079
0.210 -0.432 1.078
0.212 -0.432 1.078
0.215 -0.432 1.078
0.218 -0.432 1.077
0.221 -0.432 1.078
0.224 -0.432 1.077
0.227 -0.432 1.077
0.230 -0.431 1.076
0.233 -0.432 1.077
0.236 -0.432 1.077
0.239 -0.432 1.077
0.242 -0.432 1.077
0.244 -0.432 1.077
0.247 -0.431 1.076
0.250 -0.432 1.077
0.253 -0.431 1.076
0.256 -0.431 1.076
0.259 -0.431 1.076
0.262 -0.431 1.076
0.265 -0.431 1.076
0.268 -0.431 1.076
0.270 -0.431 1.076
0.274 -0.432 1.077
0.277 -0.432 1.078
0.280 -0.432 1.079
0.283 -0.433 1.079
0.286 -0.433 1.080
0.289 -0.433 1.080
0.292 -0.434 1.082
0.296 -0.434 1.083
0.299 -0.435 1.084
0.302 -0.435 1.086
0.306 -0.436 1.086
0.309 -0.436 1.087
0.312 -0.436 1.087
0.315 -0.436 1.088
0.318 -0.437 1.089
0.321 -0.437 1.089
0.324 -0.437 1.090
0.327 -0.438 1.091
0.331 -0.438 1.092
0.334 -0.438 1.093
0.337 -0.439 1.094
0.341 -0.439 1.095
0.344 -0.440 1.096
0.347 -0.440 1.097
0.350 -0.440 1.098
0.354 -0.441 1.099
0.357 -0.442 1.100
0.361 -0.442 1.102
0.364 -0.443 1.103
0.368 -0.443 1.104
0.371 -0.444 1.105
0.374 -0.444 1.107
0.378 -0.445 1.108
0.382 -0.446 1.110
0.385 -0.446 1.111
0.389 -0.447 1.113
0.392 -0.448 1.114
0.396 -0.448 1.116
0.400 -0.449 1.118
0.403 -0.449 1.119
0.407 -0.450 1.121
0.410 -0.451 1.122
0.414 -0.452 1.124
0.418 -0.452 1.126
0.422 -0.453 1.127
0.425 -0.454 1.129
0.429 -0.455 1.131
0.433 -0.455 1.133
0.437 -0.457 1.136
0.442 -0.458 1.139
0.446 -0.459 1.141
0.450 -0.460 1.145
0.455 -0.462 1.148
0.460 -0.464 1.152
0.464 -0.465 1.156
0.469 -0.467 1.160
0.474 -0.469 1.165
0.479 -0.471 1.170
0.485 -0.473 1.175
0.491 -0.476 1.182
0.498 -0.480 1.192
0.508 -0.485 1.206
0.520 -0.494 1.228
0.538 -0.508 1.262
0.562 -0.527 1.308
0.580 -0.540 1.341
0.590 -0.547 1.357
0.597 -0.549 1.363
0.601 -0.550 1.366
0.606 -0.551 1.367
0.610 -0.551 1.367
0.613 -0.551 1.367
0.617 -0.551 1.367
0.621 -0.552 1.368
0.626 -0.552 1.368
0.630 -0.552 1.369
0.634 -0.553 1.369
0.638 -0.553 1.370
0.642 -0.553 1.370
0.646 -0.553 1.370
0.650 -0.554 1.371
0.653 -0.553 1.370
0.657 -0.553 1.370
0.661 -0.553 1.370
0.665 -0.554 1.371
0.669 -0.554 1.370
0.672 -0.554 1.370
0.677 -0.554 1.370
0.681 -0.555 1.371
0.685 -0.555 1.371
0.688 -0.554 1.369
0.691 -0.554 1.368
0.695 -0.554 1.368
0.699 -0.554 1.367
0.702 -0.554 1.367
0.706 -0.553 1.366
0.709 -0.554 1.366
0.713 -0.553 1.365
0.717 -0.553 1.365
0.721 -0.554 1.365
0.724 -0.554 1.365
0.728 -0.553 1.364
0.732 -0.553 1.364
0.736 -0.554 1.364
0.740 -0.554 1.364
0.743 -0.553 1.363
0.747 -0.554 1.363
0.750 -0.553 1.362
0.754 -0.554 1.362
0.758 -0.553 1.361
0.762 -0.554 1.361
0.766 -0.554 1.361
0.770 -0.554 1.360
0.773 -0.553 1.359
0.776 -0.553 1.359
0.780 -0.553 1.358
0.784 -0.554 1.358
0.788 -0.553 1.357
0.792 -0.554 1.358
0.796 -0.554 1.357
0.799 -0.554 1.357
0.804 -0.554 1.357
0.808 -0.554 1.357
0.811 -0.554 1.356
0.813 -0.553 1.353
0.816 -0.553 1.351
0.821 -0.553 1.352
0.825 -0.553 1.352
0.829 -0.554 1.353
0.832 -0.553 1.351
0.837 -0.554 1.352
0.840 -0.554 1.351
0.845 -0.554 1.352
0.847 -0.553 1.349
0.850 -0.553 1.347
0.854 -0.552 1.346
0.857 -0.552 1.345
0.860 -0.552 1.344
0.864 -0.552 1.343
0.868 -0.552 1.343
0.872 -0.553 1.343
0.876 -0.553 1.343
0.880 -0.552 1.342
0.883 -0.552 1.340
0.887 -0.552 1.340
0.891 -0.552 1.339
0.895 -0.553 1.339
0.900 -0.553 1.340
0.902 -0.553 1.338
0.906 -0.552 1.337
0.910 -0.553 1.336
0.912 -0.552 1.334
0.916 -0.552 1.333
0.919 -0.552 1.332
0.923 -0.552 1.331
0.926 -0.551 1.329
0.000 0.000 0.000
0.000 0.000 0.000
0.000 0.000 0.000
0.000 0.000 0.000
0.000 0.000 0.000
0.000 0.000 0.000
0.000 0.000 0.000
0.000 0.000 0.000
0.000 0.000 0.000
0.000 0.000 0.000
0.000 0.000 0.000
0.000 0.000 0.000
0.000 0.000 0.000
0.000 0.000 0.000
0.000 0.000 0.000
0.000 0.000 0.000
0.000 0.000 0.000
0.000 0.000 0.000
0.000 0.000 0.000
0.000 0.000 0.000
-5.366 -3.304 7.943
-5.349 -3.307 7.955
-5.332 -3.311 7.967
-5.316 -3.314 7.980
-5.299 -3.318 7.992
0.000 0.000 0.000
0.000 0.000 0.000
0.000 0.000 0.000
0.000 0.000 0.000
0.000 0.000 0.000
0.000 0.000 0.000
0.000 0.000 0.000
0.000 0.000 0.000
0.000 0.000 0.000
0.000 0.000 0.000
0.000 0.000 0.000
0.000 0.000 0.000
0.000 0.000 0.000
0.000 0.000 0.000
0.000 0.000 0.000
0.000 0.000 0.000
0.000 0.000 0.000
0.000 0.000 0.000
0.000 0.000 0.000
0.000 0.000 0.000
0.000 0.000 0.000
0.000 0.000 0.000
0.000 0.000 0.000
0.000 0.000 0.000
0.000 0.000 0.000
0.000 0.000 0.000
0.000 0.000 0.000
0.000 0.000 0.000
0.000 0.000 0.000
0.000 0.000 0.000
0.000 0.000 0.000
0.000 0.000 0.000
0.000 0.000 0.000
-0.426 -0.311 0.760
-0.427 -0.313 0.765
-0.425 -0.314 0.766
-0.421 -0.312 0.762
-0.410 -0.306 0.747
0.000 0.000 0.000
0.000 0.000 0.000
0.000 0.000 0.000
0.000 0.000 0.000
0.000 0.000 0.000
0.000 0.000 0.000
0.000 0.000 0.000
0.000 0.000 0.000
0.000 0.000 0.000
0.000 0.000 0.000
0.000 0.000 0.000
0.000 0.000 0.000
0.000 0.000 0.000
0.000 0.000 0.000
0.000 0.000 0.000
0.000 0.000 0.000
0.000 0.000 0.000
0.000 0.000 0.000
0.000 0.000 0.000
0.000 0.000 0.000
0.000 0.000 0.000
0.000 0.000 0.000
0.000 0.000 0.000
-0.242 -0.205 0.503
-0.253 -0.215 0.529
0.000 0.000 0.000
0.000 0.000 0.000
-0.356 -0.309 0.759
-0.365 -0.318 0.783
-0.369 -0.323 0.795
-0.368 -0.325 0.799
-0.368 -0.326 0.803
-0.366 -0.327 0.805
-0.365 -0.328 0.808
-0.365 -0.330 0.812
-0.366 -0.333 0.820
-0.367 -0.336 0.827
-0.367 -0.338 0.832
-0.366 -0.339 0.835
-0.365 -0.340 0.837
-0.363 -0.340 0.838
-0.361 -0.340 0.839
-0.359 -0.341 0.841
-0.358 -0.342 0.842
-0.356 -0.342 0.844
-0.355 -0.343 0.846
-0.353 -0.344 0.848
-0.352 -0.345 0.850
-0.350 -0.345 0.852
-0.349 -0.346 0.854
-0.347 -0.347 0.856
-0.345 -0.347 0.857
-0.343 -0.348 0.858
-0.341 -0.348 0.860
-0.339 -0.349 0.861
-0.337 -0.349 0.862
-0.335 -0.349 0.862
-0.333 -0.350 0.864
-0.331 -0.350 0.864
-0.329 -0.350 0.864
-0.326 -0.350 0.864
-0.324 -0.350 0.864
-0.321 -0.350 0.864
-0.319 -0.349 0.863
-0.316 -0.348 0.861
-0.313 -0.348 0.860
-0.310 -0.347 0.858
-0.307 -0.346 0.856
-0.303 -0.344 0.851
0.000 0.000 0.000
0.000 0.000 0.000
-0.222 -0.258 0.639
-0.213 -0.249 0.617
-0.210 -0.248 0.613
-0.208 -0.247 0.612
-0.206 -0.247 0.612
-0.204 -0.247 0.612
-0.203 -0.247 0.612
-0.201 -0.248 0.613
-0.200 -0.248 0.614
-0.199 -0.249 0.616
-0.197 -0.248 0.615
-0.195 -0.248 0.614
-0.193 -0.247 0.612
-0.191 -0.247 0.612
-0.189 -0.247 0.612
-0.187 -0.247 0.612
-0.186 -0.247 0.612
-0.184 -0.247 0.612
-0.183 -0.247 0.612
-0.181 -0.247 0.612
-0.179 -0.247 0.611
-0.177 -0.247 0.611
-0.176 -0.247 0.612
-0.175 -0.249 0.616
-0.175 -0.250 0.620
-0.173 -0.251 0.621
-0.173 -0.252 0.625
-0.175 -0.258 0.640
-0.184 -0.274 0.678
-0.192 -0.288 0.714
-0.197 -0.299 0.741
-0.206 -0.316 0.782
-0.220 -0.341 0.845
-0.227 -0.356 0.881
-0.232 -0.368 0.912
-0.235 -0.376 0.932
-0.236 -0.383 0.948
-0.237 -0.387 0.960
-0.237 -0.391 0.970
-0.236 -0.394 0.976
-0.235 -0.397 0.983
-0.233 -0.399 0.988
-0.232 -0.401 0.993
-0.230 -0.403 0.998
-0.230 -0.407 1.008
-0.230 -0.412 1.021
-0.230 -0.417 1.034
-0.231 -0.424 1.051
-0.233 -0.434 1.075
-0.240 -0.452 1.119
-0.250 -0.477 1.182
-0.255 -0.493 1.221
-0.256 -0.501 1.241
-0.253 -0.503 1.247
-0.250 -0.502 1.245
-0.244 -0.497 1.231
-0.237 -0.490 1.215
-0.233 -0.488 1.209
-0.229 -0.487 1.207
-0.225 -0.486 1.204
-0.222 -0.485 1.202
-0.218 -0.485 1.201
-0.215 -0.485 1.202
-0.212 -0.485 1.201
-0.208 -0.484 1.200
-0.205 -0.484 1.200
-0.202 -0.484 1.200
-0.199 -0.484 1.201
-0.195 -0.483 1.198
0.000 0.000 0.000
-0.157 -0.402 0.997
-0.152 -0.397 0.984
-0.149 -0.395 0.980
-0.146 -0.394 0.978
-0.143 -0.394 0.976
-0.140 -0.393 0.975
-0.137 -0.393 0.975
-0.135 -0.393 0.974
-0.132 -0.393 0.973
-0.129 -0.392 0.973
-0.127 -0.392 0.973
-0.124 -0.392 0.972
-0.121 -0.392 0.971
-0.118 -0.391 0.970
-0.116 -0.391 0.969
-0.113 -0.390 0.968
-0.110 -0.391 0.968
-0.108 -0.391 0.968
-0.105 -0.391 0.969
-0.103 -0.390 0.968
-0.100 -0.390 0.966
-0.097 -0.389 0.965
-0.094 -0.389 0.964
-0.092 -0.389 0.964
-0.089 -0.389 0.964
-0.086 -0.389 0.963
-0.084 -0.388 0.963
-0.081 -0.388 0.962
-0.078 -0.388 0.962
-0.076 -0.388 0.961
-0.073 -0.387 0.960
-0.070 -0.387 0.960
-0.068 -0.387 0.959
-0.065 -0.387 0.959
-0.063 -0.387 0.958
-0.060 -0.386 0.958
-0.057 -0.386 0.958
-0.055 -0.386 0.957
-0.052 -0.386 0.957
-0.050 -0.386 0.957
-0.047 -0.386 0.957
-0.044 -0.386 0.956
-0.042 -0.386 0.956
-0.039 -0.386 0.956
-0.037 -0.385 0.955
-0.034 -0.385 0.955
-0.031 -0.385 0.954
-0.029 -0.384 0.953
-0.026 -0.384 0.952
-0.024 -0.384 0.952
-0.021 -0.384 0.952
-0.018 -0.384 0.951
-0.016 -0.384 0.951
-0.013 -0.383 0.951
-0.011 -0.383 0.950
-0.008 -0.383 0.949
-0.006 -0.383 0.948
-0.003 -0.382 0.947
0.000 -0.382 0.946
0.002 -0.381 0.946
0.005 -0.381 0.945
0.007 -0.381 0.945
0.010 -0.381 0.945
0.012 -0.381 0.944
0.015 -0.380 0.943
0.017 -0.380 0.942
0.020 -0.380 0.941
0.023 -0.380 0.941
0.025 -0.380 0.942
0.028 -0.382 0.946
0.031 -0.386 0.956
0.034 -0.393 0.975
0.037 -0.396 0.982
0.039 -0.396 0.981
0.042 -0.396 0.982
0.046 -0.404 1.002
0.049 -0.409 1.015
0.052 -0.409 1.013
0.054 -0.406 1.007
0.056 -0.403 0.998
0.058 -0.398 0.986
0.062 -0.402 0.997
0.066 -0.412 1.021
0.068 -0.410 1.016
0.000 0.000 0.000
0.056 -0.311 0.771
0.058 -0.310 0.768
0.062 -0.318 0.788
0.069 -0.345 0.855
0.074 -0.358 0.888
0.079 -0.369 0.915
0.082 -0.374 0.926
0.086 -0.379 0.941
0.090 -0.386 0.958
0.094 -0.392 0.971
0.099 -0.400 0.991
0.097 -0.382 0.946
0.098 -0.375 0.929
0.099 -0.372 0.923
0.102 -0.371 0.920
0.104 -0.371 0.919
0.107 -0.371 0.919
0.109 -0.370 0.917
0.111 -0.370 0.917
0.114 -0.370 0.916
0.116 -0.370 0.916
0.119 -0.369 0.916
0.121 -0.369 0.915
0.123 -0.369 0.914
0.126 -0.369 0.914
0.128 -0.368 0.913
0.130 -0.368 0.912
0.133 -0.368 0.911
0.135 -0.367 0.911
0.138 -0.368 0.911
0.141 -0.369 0.914
0.145 -0.373 0.924
0.151 -0.383 0.950
0.161 -0.402 0.997
0.170 -0.416 1.031
0.177 -0.427 1.059
0.182 -0.433 1.073
0.186 -0.435 1.077
0.189 -0.435 1.079
0.192 -0.435 1.079
0.195 -0.435 1.079
0.198 -0.435 1.079
0.201 -0.435 1.079
0.204 -0.435 1.078
0.207 -0.435 1.078
0.209 -0.435 1.077
0.212 -0.435 1.077
0.215 -0.435 1.077
0.218 -0.435 1.077
0.221 -0.434 1.077
0.224 -0.434 1.076
0.227 -0.434 1.075
0.229 -0.434 1.075
0.232 -0.434 1.075
0.235 -0.434 1.075
0.238 -0.434 1.076
0.241 -0.434 1.076
0.244 -0.434 1.075
0.247 -0.434 1.075
0.250 -0.434 1.075
0.253 -0.434 1.075
0.256 -0.434 1.075
0.259 -0.434 1.075
0.262 -0.434 1.075
0.264 -0.434 1.075
0.267 -0.434 1.075
0.270 -0.434 1.075
0.273 -0.434 1.076
0.277 -0.435 1.077
0.280 -0.435 1.078
0.283 -0.435 1.078
0.286 -0.436 1.079
0.289 -0.436 1.080
0.292 -0.436 1.081
0.296 -0.437 1.083
0.299 -0.438 1.084
0.302 -0.438 1.085
0.305 -0.438 1.085
0.308 -0.438 1.086
0.311 -0.438 1.086
0.314 -0.439 1.087
0.318 -0.439 1.088
0.321 -0.440 1.089
0.324 -0.440 1.089
0.327 -0.440 1.090
0.330 -0.441 1.091
0.334 -0.441 1.092
0.337 -0.442 1.093
0.340 -0.442 1.094
0.344 -0.442 1.095
0.347 -0.443 1.096
0.350 -0.443 1.097
0.354 -0.444 1.099
0.357 -0.444 1.100
0.361 -0.445 1.102
0.364 -0.446 1.102
0.368 -0.446 1.104
0.371 -0.447 1.105
0.374 -0.447 1.106
0.378 -0.448 1.108
0.381 -0.448 1.109
0.385 -0.449 1.111
0.389 -0.450 1.113
0.392 -0.450 1.114
0.396 -0.451 1.115
0.399 -0.452 1.117
0.403 -0.453 1.119
0.407 -0.453 1.120
0.410 -0.454 1.122
0.414 -0.455 1.123
0.418 -0.455 1.125
0.421 -0.456 1.127
0.425 -0.457 1.128
0.429 -0.458 1.131
0.433 -0.459 1.133
0.437 -0.460 1.136
0.442 -0.461 1.139
0.446 -0.463 1.142
0.451 -0.464 1.147
0.456 -0.466 1.151
0.461 -0.468 1.155
0.466 -0.470 1.159
0.470 -0.471 1.163
0.475 -0.473 1.168
0.481 -0.475 1.173
0.487 -0.478 1.180
0.494 -0.482 1.190
0.504 -0.488 1.205
0.516 -0.497 1.226
0.533 -0.510 1.259
0.555 -0.528 1.302
0.573 -0.541 1.333
0.583 -0.548 1.350
0.590 -0.550 1.356
0.594 -0.551 1.358
0.598 -0.551 1.358
0.602 -0.551 1.358
0.606 -0.552 1.359
0.610 -0.552 1.359
0.614 -0.552 1.359
0.618 -0.552 1.360
0.622 -0.552 1.360
0.626 -0.553 1.361
0.630 -0.553 1.361
0.634 -0.553 1.362
0.638 -0.553 1.361
0.642 -0.554 1.362
0.646 -0.554 1.362
0.650 -0.554 1.362
0.653 -0.554 1.361
0.657 -0.554 1.362
0.661 -0.555 1.363
0.665 -0.554 1.362
0.669 -0.554 1.362
0.673 -0.555 1.362
0.677 -0.555 1.363
0.681 -0.555 1.363
0.684 -0.555 1.362
0.688 -0.555 1.361
0.691 -0.555 1.360
0.694 -0.554 1.359
0.698 -0.554 1.358
0.702 -0.554 1.358
0.705 -0.554 1.358
0.709 -0.554 1.358
0.713 -0.554 1.358
0.717 -0.554 1.358
0.720 -0.554 1.357
0.724 -0.554 1.356
0.728 -0.554 1.356
0.732 -0.555 1.357
0.736 -0.555 1.356
0.739 -0.554 1.355
0.743 -0.554 1.355
0.746 -0.554 1.354
0.750 -0.554 1.354
0.754 -0.554 1.353
0.757 -0.554 1.353
0.761 -0.554 1.352
0.764 -0.554 1.350
0.768 -0.554 1.350
0.771 -0.553 1.349
0.776 -0.554 1.350
0.780 -0.554 1.350
0.784 -0.554 1.350
0.787 -0.554 1.349
0.791 -0.554 1.349
0.795 -0.554 1.349
0.799 -0.555 1.349
0.803 -0.555 1.349
0.807 -0.555 1.349
0.809 -0.554 1.345
0.813 -0.554 1.345
0.816 -0.553 1.344
0.821 -0.554 1.345
0.825 -0.554 1.345
0.829 -0.555 1.345
0.832 -0.554 1.343
0.836 -0.554 1.343
0.840 -0.554 1.343
0.843 -0.554 1.342
0.846 -0.553 1.339
0.849 -0.553 1.338
0.852 -0.553 1.337
0.856 -0.553 1.336
0.859 -0.552 1.335
0.864 -0.553 1.335
0.867 -0.553 1.335
0.872 -0.554 1.335
0.875 -0.553 1.334
0.879 -0.553 1.334
0.882 -0.553 1.332
0.886 -0.553 1.332
0.890 -0.553 1.331
0.894 -0.553 1.331
0.897 -0.553 1.330
0.902 -0.554 1.330
0.905 -0.553 1.329
0.909 -0.553 1.328
0.911 -0.553 1.326
0.915 -0.553 1.325
0.918 -0.552 1.324
0.922 -0.552 1.323
0.000 0.000 0.000
0.000 0.000 0.000
0.000 0.000 0.000
0.000 0.000 0.000
0.000 0.000 0.000
0.000 0.000 0.000
0.000 0.000 0.000
0.000 0.000 0.000
0.000 0.000 0.000
0.000 0.000 0.000
0.000 0.000 0.000
0.000 0.000 0.000
0.000 0.000 0.000
0.000 0.000 0.000
0.000 0.000 0.000
0.000 0.000 0.000
0.000 0.000 0.000
0.000 0.000 0.000
0.000 0.000 0.000
0.000 0.000 0.000
0.000 0.000 0.000
-5.345 -3.327 7.946
-5.327 -3.330 7.958
-5.311 -3.334 7.971
-5.295 -3.338 7.984
-5.277 -3.340 7.993
0.000 0.000 0.000
0.000 0.000 0.000
0.000 0.000 0.000
0.000 0.000 0.000
0.000 0.000 0.000
0.000 0.000 0.000
0.000 0.000 0.000
0.000 0.000 0.000
0.000 0.000 0.000
0.000 0.000 0.000
0.000 0.000 0.000
0.000 0.000 0.000
0.000 0.000 0.000
0.000 0.000 0.000
0.000 0.000 0.000
0.000 0.000 0.000
0.000 0.000 0.000
0.000 0.000 0.000
0.000 0.000 0.000
0.000 0.000 0.000
0.000 0.000 0.000
0.000 0.000 0.000
0.000 0.000 0.000
0.000 0.000 0.000
0.000 0.000 0.000
0.000 0.000 0.000
0.000 0.000 0.000
0.000 0.000 0.000
0.000 0.000 0.000
0.000 0.000 0.000
0.000 0.000 0.000
0.000 0.000 0.000
-0.424 -0.312 0.756
-0.426 -0.315 0.763
-0.424 -0.315 0.764
-0.420 -0.313 0.760
-0.409 -0.307 0.745
0.000 0.000 0.000
0.000 0.000 0.000
0.000 0.000 0.000
0.000 0.000 0.000
0.000 0.000 0.000
0.000 0.000 0.000
0.000 0.000 0.000
0.000 0.000 0.000
0.000 0.000 0.000
0.000 0.000 0.000
0.000 0.000 0.000
0.000 0.000 0.000
0.000 0.000 0.000
0.000 0.000 0.000
0.000 0.000 0.000
0.000 0.000 0.000
0.000 0.000 0.000
0.000 0.000 0.000
0.000 0.000 0.000
0.000 0.000 0.000
0.000 0.000 0.000
0.000 0.000 0.000
0.000 0.000 0.000
-0.242 -0.206 0.504
-0.254 -0.218 0.532
0.000 0.000 0.000
0.000 0.000 0.000
-0.357 -0.311 0.761
-0.366 -0.321 0.785
-0.369 -0.326 0.797
-0.369 -0.328 0.801
-0.368 -0.329 0.804
-0.367 -0.330 0.806
-0.366 -0.330 0.808
-0.365 -0.332 0.812
-0.366 -0.335 0.819
-0.367 -0.338 0.827
-0.367 -0.340 0.833
-0.367 -0.341 0.836
-0.365 -0.342 0.837
-0.363 -0.342 0.838
-0.361 -0.343 0.839
-0.360 -0.344 0.841
-0.358 -0.344 0.843
-0.357 -0.345 0.845
-0.355 -0.345 0.846
-0.353 -0.346 0.848
-0.352 -0.347 0.850
-0.350 -0.348 0.852
-0.348 -0.348 0.854
-0.347 -0.349 0.856
-0.345 -0.350 0.857
-0.343 -0.350 0.859
-0.341 -0.350 0.859
-0.339 -0.351 0.860
-0.337 -0.351 0.861
-0.335 -0.351 0.862
-0.333 -0.352 0.863
-0.331 -0.352 0.864
-0.329 -0.352 0.864
-0.326 -0.352 0.864
-0.324 -0.352 0.865
-0.322 -0.352 0.865
-0.319 -0.352 0.864
-0.316 -0.351 0.862
-0.313 -0.350 0.860
-0.310 -0.350 0.858
-0.307 -0.349 0.856
-0.303 -0.346 0.851
-0.290 -0.335 0.822
-0.255 -0.296 0.728
-0.222 -0.260 0.640
-0.213 -0.251 0.618
-0.210 -0.249 0.613
-0.208 -0.249 0.612
-0.206 -0.249 0.612
-0.204 -0.249 0.612
-0.203 -0.249 0.612
-0.201 -0.249 0.613
-0.200 -0.250 0.614
-0.199 -0.250 0.615
-0.197 -0.250 0.614
-0.195 -0.250 0.614
-0.193 -0.249 0.612
-0.191 -0.249 0.612
-0.189 -0.249 0.612
-0.188 -0.249 0.612
-0.186 -0.249 0.612
-0.184 -0.249 0.612
-0.182 -0.249 0.611
-0.181 -0.249 0.611
-0.179 -0.248 0.611
-0.177 -0.249 0.611
-0.176 -0.249 0.612
-0.175 -0.250 0.616
-0.175 -0.252 0.620
-0.174 -0.253 0.621
-0.173 -0.254 0.625
-0.175 -0.260 0.639
-0.184 -0.275 0.677
-0.192 -0.290 0.715
-0.197 -0.302 0.742
-0.206 -0.318 0.782
-0.220 -0.343 0.844
-0.226 -0.357 0.879
-0.232 -0.369 0.909
-0.234 -0.377 0.927
-0.235 -0.382 0.941
-0.235 -0.387 0.952
-0.234 -0.390 0.960
-0.233 -0.393 0.967
-0.232 -0.396 0.974
-0.232 -0.399 0.983
-0.231 -0.403 0.992
-0.230 -0.406 1.000
-0.230 -0.410 1.009
-0.230 -0.415 1.022
-0.231 -0.421 1.037
-0.232 -0.429 1.056
-0.235 -0.439 1.082
-0.241 -0.457 1.125
-0.250 -0.479 1.180
-0.254 -0.494 1.217
-0.254 -0.501 1.234
-0.253 -0.505 1.242
-0.248 -0.503 1.237
-0.242 -0.496 1.221
-0.235 -0.489 1.205
-0.231 -0.487 1.200
-0.227 -0.486 1.197
-0.224 -0.485 1.195
-0.220 -0.485 1.194
-0.217 -0.485 1.194
-0.214 -0.485 1.195
-0.211 -0.485 1.194
-0.207 -0.485 1.194
-0.204 -0.484 1.193
-0.201 -0.485 1.193
-0.198 -0.485 1.194
-0.194 -0.484 1.191
0.000 0.000 0.000
-0.156 -0.404 0.995
-0.152 -0.399 0.983
-0.149 -0.398 0.980
-0.146 -0.397 0.977
-0.143 -0.396 0.976
-0.140 -0.396 0.975
-0.137 -0.396 0.974
-0.135 -0.396 0.974
-0.132 -0.395 0.973
-0.129 -0.395 0.972
-0.127 -0.395 0.972
-0.124 -0.394 0.971
-0.121 -0.394 0.971
-0.118 -0.394 0.970
-0.116 -0.393 0.969
-0.113 -0.393 0.969
-0.110 -0.393 0.968
-0.108 -0.393 0.968
-0.105 -0.393 0.968
-0.102 -0.393 0.968
-0.100 -0.392 0.966
-0.097 -0.392 0.965
-0.094 -0.391 0.964
-0.092 -0.391 0.964
-0.089 -0.391 0.963
-0.086 -0.391 0.963
-0.084 -0.391 0.963
-0.081 -0.391 0.962
-0.078 -0.390 0.961
-0.076 -0.390 0.961
-0.073 -0.390 0.960
-0.070 -0.390 0.959
-0.068 -0.389 0.959
-0.065 -0.389 0.959
-0.063 -0.389 0.958
-0.060 -0.389 0.958
-0.057 -0.389 0.957
-0.055 -0.389 0.957
-0.052 -0.389 0.957
-0.050 -0.389 0.957
-0.047 -0.388 0.956
-0.044 -0.388 0.956
-0.042 -0.388 0.956
-0.039 -0.388 0.956
-0.037 -0.388 0.955
-0.034 -0.388 0.955
-0.031 -0.387 0.954
-0.029 -0.387 0.953
-0.026 -0.387 0.952
-0.024 -0.387 0.952
-0.021 -0.386 0.951
-0.018 -0.386 0.951
-0.016 -0.386 0.951
-0.013 -0.386 0.951
-0.011 -0.386 0.950
-0.008 -0.385 0.949
-0.006 -0.385 0.948
-0.003 -0.384 0.947
0.000 -0.384 0.946
0.002 -0.384 0.946
0.005 -0.384 0.946
0.007 -0.384 0.945
0.010 -0.383 0.944
0.012 -0.383 0.943
0.015 -0.383 0.942
0.017 -0.382 0.942
0.020 -0.382 0.941
0.023 -0.382 0.941
0.025 -0.383 0.942
0.028 -0.384 0.946
0.031 -0.388 0.956
0.034 -0.396 0.975
0.037 -0.399 0.982
0.039 -0.398 0.981
0.042 -0.398 0.981
0.046 -0.407 1.002
0.049 -0.413 1.017
0.052 -0.412 1.015
0.054 -0.409 1.008
0.056 -0.406 1.001
0.059 -0.402 0.991
0.062 -0.410 1.011
0.067 -0.421 1.037
0.069 -0.417 1.026
0.000 0.000 0.000
0.056 -0.314 0.774
0.058 -0.313 0.770
0.062 -0.322 0.794
0.070 -0.351 0.865
0.075 -0.364 0.898
0.079 -0.373 0.918
0.082 -0.375 0.923
0.086 -0.379 0.934
0.090 -0.389 0.957
0.094 -0.395 0.973
0.099 -0.402 0.991
0.097 -0.384 0.946
0.098 -0.377 0.929
0.099 -0.375 0.923
0.102 -0.374 0.920
0.104 -0.373 0.919
0.106 -0.373 0.919
0.109 -0.373 0.917
0.111 -0.372 0.917
0.114 -0.372 0.916
0.116 -0.372 0.916
0.118 -0.372 0.915
0.121 -0.372 0.915
0.123 -0.371 0.914
0.126 -0.371 0.914
0.128 -0.371 0.913
0.130 -0.371 0.913
0.133 -0.370 0.911
0.135 -0.370 0.911
0.138 -0.370 0.911
0.140 -0.371 0.913
0.144 -0.375 0.923
0.151 -0.385 0.948
0.161 -0.404 0.995
0.170 -0.418 1.030
0.177 -0.430 1.058
0.182 -0.435 1.072
0.186 -0.437 1.077
0.189 -0.438 1.078
0.192 -0.438 1.079
0.195 -0.438 1.079
0.198 -0.438 1.079
0.201 -0.438 1.078
0.204 -0.438 1.078
0.207 -0.438 1.077
0.209 -0.438 1.077
0.212 -0.437 1.077
0.215 -0.438 1.077
0.218 -0.437 1.077
0.221 -0.437 1.077
0.224 -0.437 1.076
0.227 -0.437 1.075
0.229 -0.437 1.075
0.232 -0.437 1.075
0.235 -0.437 1.075
0.238 -0.437 1.075
0.241 -0.436 1.074
0.244 -0.436 1.074
0.247 -0.436 1.074
0.249 -0.436 1.074
0.252 -0.436 1.074
0.255 -0.436 1.073
0.258 -0.436 1.074
0.261 -0.436 1.074
0.264 -0.437 1.074
0.267 -0.436 1.074
0.270 -0.437 1.074
0.273 -0.437 1.075
0.276 -0.437 1.076
0.280 -0.438 1.077
0.283 -0.438 1.078
0.286 -0.439 1.079
0.289 -0.439 1.080
0.292 -0.440 1.082
0.296 -0.440 1.082
0.299 -0.440 1.084
0.302 -0.441 1.084
0.305 -0.441 1.085
0.308 -0.441 1.085
0.311 -0.441 1.085
0.314 -0.442 1.086
0.318 -0.442 1.087
0.321 -0.442 1.088
0.324 -0.443 1.089
0.327 -0.443 1.089
0.330 -0.443 1.090
0.333 -0.444 1.091
0.337 -0.444 1.092
0.340 -0.445 1.093
0.344 -0.445 1.094
0.347 -0.446 1.095
0.350 -0.446 1.096
0.354 -0.447 1.098
0.357 -0.447 1.099
0.361 -0.448 1.101
0.364 -0.448 1.102
0.367 -0.449 1.103
0.371 -0.450 1.105
0.374 -0.450 1.106
0.378 -0.451 1.108
0.381 -0.451 1.109
0.385 -0.452 1.111
0.389 -0.453 1.112
0.392 -0.454 1.114
0.396 -0.454 1.116
0.400 -0.455 1.118
0.403 -0.456 1.119
0.407 -0.456 1.121
0.410 -0.457 1.122
0.414 -0.457 1.123
0.417 -0.458 1.124
0.421 -0.459 1.126
0.425 -0.460 1.128
0.429 -0.461 1.131
0.434 -0.462 1.134
0.438 -0.464 1.138
0.443 -0.465 1.142
0.448 -0.467 1.146
0.453 -0.469 1.151
0.457 -0.471 1.155
0.462 -0.472 1.159
0.467 -0.474 1.162
0.472 -0.476 1.166
0.477 -0.478 1.172
0.483 -0.481 1.179
0.491 -0.485 1.190
0.501 -0.492 1.206
0.514 -0.501 1.229
0.531 -0.515 1.261
0.551 -0.531 1.301
0.566 -0.542 1.327
0.576 -0.548 1.341
0.583 -0.550 1.348
0.587 -0.551 1.349
0.591 -0.552 1.351
0.595 -0.552 1.351
0.599 -0.552 1.351
0.603 -0.552 1.352
0.607 -0.553 1.351
0.611 -0.553 1.352
0.615 -0.553 1.352
0.619 -0.553 1.353
0.622 -0.553 1.353
0.626 -0.554 1.353
0.630 -0.554 1.353
0.634 -0.554 1.353
0.638 -0.554 1.354
0.642 -0.554 1.354
0.646 -0.554 1.354
0.649 -0.554 1.353
0.653 -0.554 1.353
0.657 -0.555 1.354
0.661 -0.555 1.354
0.665 -0.555 1.354
0.669 -0.555 1.354
0.673 -0.556 1.355
0.677 -0.556 1.355
0.680 -0.556 1.354
0.684 -0.555 1.353
0.687 -0.555 1.353
0.691 -0.555 1.351
0.694 -0.555 1.351
0.698 -0.555 1.350
0.702 -0.555 1.350
0.706 -0.555 1.350
0.709 -0.555 1.350
0.713 -0.555 1.349
0.716 -0.554 1.348
0.720 -0.555 1.348
0.724 -0.555 1.348
0.728 -0.555 1.348
0.731 -0.555 1.348
0.734 -0.554 1.346
0.738 -0.555 1.346
0.742 -0.555 1.346
0.746 -0.555 1.346
0.749 -0.555 1.345
0.753 -0.555 1.345
0.756 -0.554 1.343
0.759 -0.554 1.342
0.764 -0.554 1.342
0.767 -0.554 1.342
0.772 -0.555 1.343
0.776 -0.555 1.343
0.780 -0.555 1.343
0.783 -0.555 1.342
0.787 -0.555 1.341
0.790 -0.555 1.340
0.794 -0.555 1.340
0.798 -0.555 1.340
0.802 -0.555 1.340
0.805 -0.555 1.339
0.808 -0.554 1.337
0.812 -0.554 1.337
0.816 -0.555 1.336
0.820 -0.555 1.338
0.824 -0.555 1.337
0.826 -0.554 1.334
0.830 -0.554 1.333
0.834 -0.554 1.334
0.838 -0.555 1.334
0.842 -0.555 1.333
0.845 -0.554 1.331
0.848 -0.554 1.330
0.851 -0.553 1.328
0.854 -0.553 1.327
0.858 -0.553 1.327
0.862 -0.553 1.327
0.867 -0.554 1.327
0.870 -0.554 1.326
0.874 -0.554 1.326
0.877 -0.553 1.324
0.881 -0.553 1.323
0.885 -0.554 1.323
0.888 -0.554 1.322
0.892 -0.554 1.322
0.897 -0.554 1.322
0.901 -0.554 1.322
0.903 -0.554 1.320
0.906 -0.553 1.318
0.910 -0.553 1.317
0.914 -0.554 1.318
0.918 -0.554 1.317
0.000 0.000 0.000
0.000 0.000 0.000
0.000 0.000 0.000
0.000 0.000 0.000
0.000 0.000 0.000
0.000 0.000 0.000
0.000 0.000 0.000
0.000 0.000 0.000
0.000 0.000 0.000
0.000 0.000 0.000
0.000 0.000 0.000
0.000 0.000 0.000
0.000 0.000 0.000
0.000 0.000 0.000
0.000 0.000 0.000
0.000 0.000 0.000
0.000 0.000 0.000
0.000 0.000 0.000
0.000 0.000 0.000
0.000 0.000 0.000
0.000 0.000 0.000
-5.342 -3.348 7.940
-5.325 -3.351 7.952
-5.308 -3.354 7.963
-5.292 -3.358 7.977
-5.275 -3.362 7.989
0.000 0.000 0.000
0.000 0.000 0.000
0.000 0.000 0.000
0.000 0.000 0.000
0.000 0.000 0.000
0.000 0.000 0.000
0.000 0.000 0.000
0.000 0.000 0.000
0.000 0.000 0.000
0.000 0.000 0.000
0.000 0.000 0.000
0.000 0.000 0.000
0.000 0.000 0.000
0.000 0.000 0.000
0.000 0.000 0.000
0.000 0.000 0.000
0.000 0.000 0.000
0.000 0.000 0.000
0.000 0.000 0.000
0.000 0.000 0.000
0.000 0.000 0.000
0.000 0.000 0.000
0.000 0.000 0.000
0.000 0.000 0.000
0.000 0.000 0.000
0.000 0.000 0.000
0.000 0.000 0.000
0.000 0.000 0.000
0.000 0.000 0.000
0.000 0.000 0.000
0.000 0.000 0.000
0.000 0.000 0.000
-0.424 -0.314 0.755
-0.425 -0.316 0.762
-0.424 -0.317 0.763
-0.419 -0.315 0.758
-0.409 -0.309 0.744
0.000 0.000 0.000
0.000 0.000 0.000
0.000 0.000 0.000
0.000 0.000 0.000
0.000 0.000 0.000
0.000 0.000 0.000
0.000 0.000 0.000
0.000 0.000 0.000
0.000 0.000 0.000
0.000 0.000 0.000
0.000 0.000 0.000
0.000 0.000 0.000
0.000 0.000 0.000
0.000 0.000 0.000
0.000 0.000 0.000
0.000 0.000 0.000
0.000 0.000 0.000
0.000 0.000 0.000
0.000 0.000 0.000
0.000 0.000 0.000
0.000 0.000 0.000
0.000 0.000 0.000
0.000 0.000 0.000
-0.243 -0.208 0.505
-0.255 -0.220 0.533
0.000 0.000 0.000
0.000 0.000 0.000
-0.358 -0.314 0.763
-0.367 -0.324 0.786
-0.370 -0.329 0.798
-0.370 -0.330 0.802
-0.369 -0.331 0.804
-0.367 -0.332 0.806
-0.366 -0.333 0.809
-0.365 -0.334 0.812
-0.366 -0.337 0.819
-0.367 -0.340 0.827
-0.368 -0.343 0.833
-0.366 -0.344 0.835
-0.365 -0.344 0.837
-0.363 -0.345 0.838
-0.361 -0.345 0.839
-0.360 -0.346 0.841
-0.358 -0.346 0.843
-0.356 -0.347 0.845
-0.355 -0.348 0.846
-0.353 -0.348 0.848
-0.351 -0.349 0.850
-0.350 -0.350 0.851
-0.348 -0.351 0.853
-0.347 -0.351 0.855
-0.345 -0.352 0.857
-0.343 -0.353 0.859
-0.341 -0.353 0.860
-0.339 -0.353 0.860
-0.337 -0.354 0.861
-0.335 -0.354 0.862
-0.333 -0.354 0.863
-0.331 -0.354 0.863
-0.329 -0.355 0.864
-0.326 -0.355 0.864
-0.324 -0.355 0.865
-0.322 -0.355 0.865
-0.319 -0.354 0.864
-0.316 -0.353 0.862
-0.313 -0.353 0.860
-0.310 -0.352 0.858
-0.307 -0.351 0.856
-0.302 -0.348 0.850
-0.291 -0.337 0.823
0.000 0.000 0.000
-0.223 -0.263 0.641
-0.213 -0.253 0.618
-0.210 -0.251 0.613
-0.208 -0.251 0.612
-0.206 -0.251 0.612
-0.204 -0.251 0.612
-0.203 -0.251 0.613
-0.201 -0.251 0.613
-0.200 -0.251 0.614
-0.198 -0.252 0.615
-0.197 -0.251 0.614
-0.195 -0.251 0.613
-0.193 -0.251 0.612
-0.191 -0.251 0.612
-0.189 -0.251 0.612
-0.188 -0.251 0.612
-0.186 -0.251 0.613
-0.184 -0.251 0.612
-0.183 -0.251 0.612
-0.181 -0.250 0.611
-0.179 -0.250 0.611
-0.177 -0.250 0.612
-0.176 -0.251 0.612
-0.176 -0.252 0.616
-0.175 -0.254 0.620
-0.174 -0.255 0.622
-0.173 -0.256 0.625
-0.175 -0.261 0.639
-0.183 -0.277 0.676
-0.192 -0.292 0.715
-0.197 -0.304 0.742
-0.206 -0.320 0.782
-0.219 -0.345 0.842
-0.226 -0.359 0.877
-0.231 -0.370 0.905
-0.232 -0.377 0.922
-0.233 -0.382 0.934
-0.233 -0.386 0.943
-0.232 -0.389 0.950
-0.231 -0.392 0.958
-0.231 -0.396 0.968
-0.231 -0.400 0.979
-0.231 -0.405 0.991
-0.231 -0.409 1.001
-0.230 -0.413 1.010
-0.230 -0.418 1.023
-0.232 -0.426 1.042
-0.234 -0.436 1.066
-0.237 -0.447 1.094
-0.242 -0.462 1.130
-0.249 -0.481 1.175
-0.253 -0.495 1.211
-0.254 -0.503 1.230
-0.251 -0.505 1.235
-0.246 -0.502 1.228
-0.239 -0.494 1.207
-0.233 -0.489 1.195
-0.229 -0.487 1.191
-0.226 -0.486 1.189
-0.222 -0.485 1.187
-0.219 -0.485 1.187
-0.216 -0.486 1.188
-0.213 -0.486 1.188
-0.209 -0.485 1.187
-0.206 -0.485 1.186
-0.203 -0.485 1.186
-0.199 -0.485 1.186
-0.196 -0.486 1.188
-0.193 -0.484 1.184
0.000 0.000 0.000
-0.156 -0.406 0.992
-0.152 -0.401 0.982
-0.149 -0.400 0.979
-0.146 -0.399 0.976
-0.143 -0.399 0.975
-0.140 -0.398 0.974
-0.137 -0.398 0.974
-0.135 -0.398 0.974
-0.132 -0.398 0.973
-0.129 -0.397 0.972
-0.126 -0.397 0.971
-0.124 -0.397 0.970
-0.121 -0.397 0.970
-0.118 -0.396 0.970
-0.116 -0.396 0.969
-0.113 -0.396 0.968
-0.110 -0.396 0.968
-0.108 -0.396 0.968
-0.105 -0.396 0.968
-0.102 -0.395 0.967
-0.100 -0.395 0.965
-0.097 -0.394 0.964
-0.094 -0.394 0.964
-0.092 -0.394 0.963
-0.089 -0.394 0.963
-0.086 -0.393 0.962
-0.084 -0.393 0.962
-0.081 -0.393 0.961
-0.078 -0.393 0.961
-0.076 -0.392 0.960
-0.073 -0.392 0.960
-0.070 -0.392 0.959
-0.068 -0.392 0.959
-0.065 -0.392 0.958
-0.063 -0.392 0.958
-0.060 -0.391 0.957
-0.057 -0.391 0.957
-0.055 -0.391 0.956
-0.052 -0.391 0.956
-0.050 -0.391 0.956
-0.047 -0.391 0.956
-0.044 -0.391 0.955
-0.042 -0.391 0.955
-0.039 -0.390 0.955
-0.037 -0.390 0.955
-0.034 -0.390 0.954
-0.031 -0.389 0.953
-0.029 -0.389 0.952
-0.026 -0.389 0.952
-0.024 -0.389 0.951
-0.021 -0.389 0.950
-0.018 -0.388 0.950
-0.016 -0.388 0.950
-0.013 -0.388 0.950
-0.011 -0.388 0.949
-0.008 -0.388 0.949
-0.006 -0.387 0.947
-0.003 -0.387 0.946
0.000 -0.386 0.945
0.002 -0.386 0.945
0.005 -0.386 0.945
0.007 -0.386 0.945
0.010 -0.386 0.944
0.012 -0.385 0.942
0.015 -0.385 0.942
0.017 -0.385 0.941
0.020 -0.385 0.941
0.023 -0.385 0.941
0.025 -0.385 0.942
0.028 -0.387 0.946
0.031 -0.390 0.955
0.034 -0.398 0.975
0.037 -0.401 0.981
0.039 -0.401 0.981
0.042 -0.401 0.981
0.046 -0.410 1.003
0.049 -0.416 1.019
0.052 -0.416 1.017
0.054 -0.413 1.010
0.057 -0.410 1.002
0.059 -0.406 0.994
0.063 -0.416 1.019
0.067 -0.427 1.044
0.069 -0.421 1.031
0.000 0.000 0.000
0.057 -0.319 0.781
0.058 -0.317 0.776
0.063 -0.331 0.810
0.072 -0.364 0.889
0.075 -0.368 0.900
0.079 -0.373 0.912
0.082 -0.377 0.923
0.086 -0.386 0.944
0.091 -0.395 0.965
0.095 -0.401 0.980
0.099 -0.405 0.992
0.097 -0.386 0.944
0.098 -0.379 0.928
0.099 -0.377 0.922
0.102 -0.376 0.919
0.104 -0.376 0.919
0.106 -0.375 0.918
0.109 -0.375 0.917
0.111 -0.375 0.916
0.114 -0.374 0.916
0.116 -0.374 0.915
0.118 -0.374 0.915
0.121 -0.374 0.914
0.123 -0.373 0.914
0.126 -0.373 0.913
0.128 -0.373 0.913
0.130 -0.373 0.912
0.133 -0.372 0.911
0.135 -0.372 0.910
0.138 -0.372 0.910
0.140 -0.373 0.913
0.144 -0.377 0.922
0.151 -0.387 0.947
0.161 -0.406 0.994
0.170 -0.421 1.030
0.177 -0.432 1.058
0.182 -0.438 1.071
0.186 -0.440 1.076
0.189 -0.440 1.077
0.192 -0.441 1.078
0.195 -0.441 1.078
0.198 -0.441 1.078
0.201 -0.440 1.077
0.204 -0.440 1.077
0.206 -0.440 1.077
0.209 -0.440 1.076
0.212 -0.440 1.076
0.215 -0.440 1.076
0.218 -0.440 1.075
0.221 -0.439 1.075
0.223 -0.439 1.074
0.226 -0.439 1.074
0.229 -0.439 1.073
0.232 -0.439 1.073
0.235 -0.439 1.073
0.238 -0.439 1.073
0.240 -0.439 1.072
0.243 -0.438 1.072
0.246 -0.438 1.072
0.249 -0.438 1.072
0.252 -0.439 1.072
0.255 -0.439 1.072
0.258 -0.439 1.073
0.261 -0.439 1.073
0.264 -0.439 1.073
0.267 -0.439 1.073
0.270 -0.439 1.074
0.273 -0.440 1.074
0.276 -0.440 1.075
0.279 -0.440 1.076
0.283 -0.441 1.078
0.286 -0.442 1.079
0.289 -0.442 1.080
0.292 -0.442 1.081
0.295 -0.443 1.082
0.299 -0.443 1.082
0.302 -0.443 1.083
0.305 -0.443 1.083
0.308 -0.444 1.084
0.311 -0.444 1.084
0.314 -0.444 1.086
0.317 -0.445 1.086
0.321 -0.445 1.087
0.324 -0.445 1.088
0.327 -0.446 1.089
0.330 -0.446 1.089
0.333 -0.446 1.091
0.337 -0.447 1.092
0.340 -0.448 1.093
0.343 -0.448 1.094
0.347 -0.448 1.095
0.350 -0.449 1.096
0.354 -0.449 1.097
0.357 -0.450 1.099
0.360 -0.451 1.100
0.364 -0.451 1.102
0.367 -0.452 1.103
0.371 -0.452 1.104
0.374 -0.453 1.106
0.378 -0.454 1.107
0.382 -0.455 1.109
0.385 -0.455 1.111
0.389 -0.456 1.113
0.392 -0.457 1.114
0.396 -0.458 1.116
0.400 -0.458 1.118
0.404 -0.459 1.120
0.407 -0.460 1.121
0.411 -0.460 1.122
0.414 -0.460 1.123
0.417 -0.461 1.124
0.421 -0.462 1.126
0.426 -0.463 1.129
0.430 -0.465 1.133
0.435 -0.467 1.137
0.440 -0.468 1.141
0.444 -0.470 1.146
0.449 -0.472 1.149
0.454 -0.474 1.154
0.459 -0.475 1.158
0.463 -0.477 1.162
0.468 -0.479 1.166
0.474 -0.481 1.171
0.480 -0.484 1.179
0.488 -0.489 1.191
0.499 -0.496 1.208
0.512 -0.506 1.232
0.530 -0.521 1.267
0.549 -0.536 1.303
0.561 -0.544 1.324
0.570 -0.549 1.335
0.575 -0.551 1.339
0.580 -0.551 1.341
0.584 -0.552 1.342
0.588 -0.553 1.344
0.592 -0.553 1.344
0.596 -0.553 1.344
0.600 -0.553 1.344
0.604 -0.553 1.345
0.608 -0.554 1.345
0.611 -0.554 1.345
0.615 -0.554 1.345
0.619 -0.554 1.345
0.623 -0.554 1.345
0.626 -0.554 1.345
0.631 -0.555 1.346
0.635 -0.555 1.347
0.639 -0.555 1.347
0.643 -0.555 1.347
0.646 -0.555 1.346
0.650 -0.555 1.347
0.654 -0.555 1.346
0.657 -0.555 1.346
0.661 -0.556 1.346
0.665 -0.556 1.346
0.669 -0.556 1.347
0.673 -0.556 1.346
0.676 -0.556 1.346
0.680 -0.556 1.345
0.684 -0.556 1.345
0.687 -0.556 1.345
0.691 -0.556 1.344
0.694 -0.555 1.343
0.698 -0.555 1.343
0.701 -0.555 1.342
0.705 -0.555 1.342
0.709 -0.555 1.341
0.712 -0.555 1.340
0.716 -0.555 1.341
0.720 -0.555 1.340
0.723 -0.555 1.340
0.727 -0.555 1.339
0.730 -0.555 1.339
0.735 -0.556 1.339
0.738 -0.556 1.339
0.742 -0.555 1.338
0.745 -0.555 1.337
0.748 -0.555 1.336
0.752 -0.555 1.335
0.755 -0.554 1.334
0.760 -0.555 1.335
0.763 -0.555 1.335
0.768 -0.556 1.336
0.772 -0.556 1.335
0.776 -0.556 1.336
0.778 -0.555 1.333
0.781 -0.555 1.332
0.784 -0.554 1.330
0.789 -0.555 1.331
0.793 -0.555 1.331
0.798 -0.556 1.332
0.800 -0.555 1.330
0.805 -0.556 1.331
0.807 -0.555 1.328
0.811 -0.555 1.329
0.815 -0.555 1.328
0.819 -0.555 1.328
0.821 -0.554 1.326
0.825 -0.554 1.325
0.829 -0.555 1.325
0.834 -0.555 1.326
0.838 -0.556 1.326
0.841 -0.555 1.325
0.843 -0.555 1.322
0.847 -0.555 1.322
0.850 -0.554 1.320
0.853 -0.554 1.319
0.857 -0.554 1.318
0.862 -0.555 1.320
0.865 -0.554 1.318
0.869 -0.554 1.317
0.872 -0.554 1.317
0.876 -0.554 1.316
0.878 -0.553 1.313
0.883 -0.554 1.315
0.887 -0.555 1.315
0.892 -0.555 1.315
0.895 -0.555 1.313
0.898 -0.554 1.311
0.901 -0.554 1.311
0.906 -0.555 1.312
0.910 -0.555 1.311
0.914 -0.555 1.311
0.000 0.000 0.000
0.000 0.000 0.000
0.000 0.000 0.000
0.000 0.000 0.000
0.000 0.000 0.000
0.000 0.000 0.000
0.000 0.000 0.000
0.000 0.000 0.000
0.000 0.000 0.000
0.000 0.000 0.000
0.000 0.000 0.000
0.000 0.000 0.000
0.000 0.000 0.000
0.000 0.000 0.000
0.000 0.000 0.000
0.000 0.000 0.000
0.000 0.000 0.000
0.000 0.000 0.000
0.000 0.000 0.000
0.000 0.000 0.000
0.000 0.000 0.000
0.000 0.000 0.000
-5.322 -3.371 7.945
-5.305 -3.375 7.957
-5.289 -3.378 7.970
-5.273 -3.383 7.983
-5.255 -3.385 7.993
0.000 0.000 0.000
0.000 0.000 0.000
0.000 0.000 0.000
0.000 0.000 0.000
0.000 0.000 0.000
0.000 0.000 0.000
0.000 0.000 0.000
0.000 0.000 0.000
0.000 0.000 0.000
0.000 0.000 0.000
0.000 0.000 0.000
0.000 0.000 0.000
0.000 0.000 0.000
0.000 0.000 0.000
0.000 0.000 0.000
0.000 0.000 0.000
0.000 0.000 0.000
0.000 0.000 0.000
0.000 0.000 0.000
0.000 0.000 0.000
0.000 0.000 0.000
0.000 0.000 0.000
0.000 0.000 0.000
0.000 0.000 0.000
0.000 0.000 0.000
0.000 0.000 0.000
0.000 0.000 0.000
0.000 0.000 0.000
0.000 0.000 0.000
0.000 0.000 0.000
0.000 0.000 0.000
-0.423 -0.315 0.754
-0.425 -0.318 0.761
-0.423 -0.318 0.761
-0.418 -0.316 0.757
-0.409 -0.311 0.744
0.000 0.000 0.000
0.000 0.000 0.000
0.000 0.000 0.000
0.000 0.000 0.000
0.000 0.000 0.000
0.000 0.000 0.000
0.000 0.000 0.000
0.000 0.000 0.000
0.000 0.000 0.000
0.000 0.000 0.000
0.000 0.000 0.000
0.000 0.000 0.000
0.000 0.000 0.000
0.000 0.000 0.000
0.000 0.000 0.000
0.000 0.000 0.000
0.000 0.000 0.000
0.000 0.000 0.000
0.000 0.000 0.000
0.000 0.000 0.000
0.000 0.000 0.000
0.000 0.000 0.000
0.000 0.000 0.000
-0.243 -0.210 0.505
-0.256 -0.223 0.536
0.000 0.000 0.000
0.000 0.000 0.000
-0.359 -0.317 0.764
-0.368 -0.327 0.788
-0.370 -0.331 0.799
-0.370 -0.333 0.803
-0.369 -0.334 0.804
-0.368 -0.335 0.808
-0.367 -0.336 0.810
-0.366 -0.337 0.813
-0.366 -0.339 0.819
-0.367 -0.342 0.827
-0.368 -0.345 0.833
-0.367 -0.346 0.836
-0.365 -0.346 0.837
-0.363 -0.347 0.838
-0.361 -0.347 0.838
-0.360 -0.348 0.841
-0.358 -0.348 0.842
-0.356 -0.349 0.845
-0.355 -0.350 0.846
-0.353 -0.351 0.848
-0.351 -0.351 0.850
-0.350 -0.352 0.852
-0.348 -0.353 0.853
-0.347 -0.353 0.855
-0.345 -0.354 0.857
-0.343 -0.355 0.858
-0.341 -0.355 0.859
-0.339 -0.355 0.859
-0.337 -0.356 0.861
-0.335 -0.356 0.862
-0.333 -0.356 0.863
-0.331 -0.357 0.863
-0.329 -0.357 0.864
-0.326 -0.357 0.864
-0.324 -0.357 0.864
-0.322 -0.357 0.865
-0.319 -0.357 0.864
-0.317 -0.356 0.863
-0.313 -0.355 0.861
-0.310 -0.355 0.859
-0.307 -0.353 0.856
-0.303 -0.351 0.851
-0.292 -0.341 0.827
0.000 0.000 0.000
-0.223 -0.265 0.642
-0.214 -0.256 0.619
-0.210 -0.253 0.613
-0.208 -0.253 0.612
-0.206 -0.252 0.612
-0.205 -0.253 0.613
-0.203 -0.253 0.613
-0.201 -0.253 0.613
-0.200 -0.253 0.614
-0.199 -0.253 0.615
-0.197 -0.253 0.614
-0.195 -0.253 0.614
-0.193 -0.252 0.612
-0.191 -0.252 0.612
-0.189 -0.252 0.612
-0.188 -0.253 0.613
-0.186 -0.252 0.613
-0.184 -0.252 0.613
-0.183 -0.252 0.612
-0.181 -0.252 0.612
-0.179 -0.252 0.611
-0.178 -0.252 0.612
-0.176 -0.252 0.612
-0.175 -0.254 0.616
-0.175 -0.255 0.620
-0.174 -0.257 0.623
-0.173 -0.258 0.626
-0.175 -0.263 0.639
-0.183 -0.278 0.675
-0.192 -0.295 0.716
-0.198 -0.306 0.743
-0.206 -0.322 0.782
-0.219 -0.346 0.840
-0.225 -0.360 0.875
-0.230 -0.371 0.901
-0.231 -0.377 0.915
-0.231 -0.381 0.925
-0.230 -0.384 0.933
-0.230 -0.388 0.943
-0.230 -0.393 0.954
-0.231 -0.398 0.967
-0.231 -0.404 0.981
-0.232 -0.410 0.995
-0.232 -0.414 1.005
-0.231 -0.417 1.013
-0.231 -0.422 1.026
-0.233 -0.431 1.046
-0.236 -0.442 1.072
-0.238 -0.452 1.099
-0.242 -0.464 1.128
-0.247 -0.481 1.169
-0.252 -0.497 1.207
-0.253 -0.505 1.227
-0.250 -0.505 1.227
-0.244 -0.500 1.214
-0.236 -0.491 1.194
-0.231 -0.488 1.186
-0.228 -0.487 1.182
-0.224 -0.486 1.180
-0.221 -0.486 1.180
-0.218 -0.486 1.181
-0.215 -0.486 1.181
-0.211 -0.486 1.181
-0.208 -0.486 1.180
-0.205 -0.485 1.179
-0.201 -0.485 1.179
-0.198 -0.485 1.179
-0.195 -0.486 1.181
-0.191 -0.484 1.176
0.000 0.000 0.000
-0.156 -0.408 0.990
-0.152 -0.404 0.981
-0.149 -0.402 0.978
-0.146 -0.402 0.976
-0.143 -0.401 0.975
-0.140 -0.401 0.974
-0.137 -0.401 0.974
-0.135 -0.401 0.974
-0.132 -0.400 0.972
-0.129 -0.400 0.972
-0.126 -0.399 0.971
-0.124 -0.399 0.970
-0.121 -0.399 0.970
-0.118 -0.399 0.970
-0.116 -0.399 0.969
-0.113 -0.398 0.968
-0.110 -0.398 0.968
-0.108 -0.398 0.968
-0.105 -0.398 0.967
-0.102 -0.398 0.967
-0.100 -0.397 0.965
-0.097 -0.397 0.964
-0.094 -0.397 0.964
-0.092 -0.396 0.963
-0.089 -0.396 0.963
-0.086 -0.396 0.962
-0.084 -0.396 0.962
-0.081 -0.395 0.961
-0.078 -0.395 0.960
-0.076 -0.395 0.960
-0.073 -0.395 0.959
-0.070 -0.395 0.959
-0.068 -0.394 0.958
-0.065 -0.394 0.958
-0.063 -0.394 0.957
-0.060 -0.394 0.957
-0.057 -0.393 0.956
-0.055 -0.393 0.956
-0.052 -0.393 0.956
-0.049 -0.393 0.956
-0.047 -0.393 0.955
-0.044 -0.393 0.956
-0.042 -0.393 0.955
-0.039 -0.393 0.955
-0.037 -0.393 0.954
-0.034 -0.392 0.954
-0.031 -0.392 0.952
-0.029 -0.392 0.952
-0.026 -0.392 0.952
-0.024 -0.391 0.951
-0.021 -0.391 0.951
-0.018 -0.391 0.950
-0.016 -0.391 0.950
-0.013 -0.391 0.949
-0.011 -0.391 0.949
-0.008 -0.390 0.948
-0.006 -0.390 0.947
-0.003 -0.389 0.946
0.000 -0.389 0.945
0.002 -0.389 0.945
0.005 -0.389 0.945
0.007 -0.389 0.945
0.010 -0.388 0.944
0.012 -0.388 0.942
0.015 -0.387 0.941
0.017 -0.387 0.941
0.020 -0.387 0.941
0.023 -0.387 0.941
0.025 -0.388 0.942
0.028 -0.389 0.946
0.031 -0.393 0.955
0.034 -0.401 0.975
0.037 -0.404 0.981
0.039 -0.404 0.981
0.042 -0.404 0.981
0.046 -0.413 1.003
0.049 -0.419 1.019
0.052 -0.419 1.018
0.054 -0.416 1.012
0.057 -0.414 1.005
0.059 -0.411 0.998
0.063 -0.420 1.022
0.067 -0.430 1.044
0.069 -0.424 1.029
0.000 0.000 0.000
0.058 -0.326 0.793
0.060 -0.325 0.790
0.066 -0.346 0.841
0.073 -0.372 0.904
0.075 -0.372 0.904
0.079 -0.375 0.911
0.083 -0.385 0.935
0.088 -0.395 0.960
0.092 -0.402 0.977
0.096 -0.405 0.985
0.099 -0.409 0.994
0.097 -0.389 0.944
0.098 -0.382 0.928
0.099 -0.379 0.922
0.102 -0.378 0.919
0.104 -0.378 0.918
0.106 -0.378 0.918
0.109 -0.377 0.917
0.111 -0.377 0.916
0.114 -0.377 0.916
0.116 -0.376 0.915
0.118 -0.376 0.914
0.121 -0.376 0.914
0.123 -0.376 0.913
0.126 -0.375 0.912
0.128 -0.375 0.912
0.130 -0.375 0.911
0.133 -0.375 0.910
0.135 -0.374 0.909
0.137 -0.374 0.910
0.140 -0.375 0.912
0.144 -0.379 0.921
0.151 -0.389 0.946
0.161 -0.408 0.992
0.169 -0.424 1.029
0.177 -0.435 1.058
0.182 -0.441 1.071
0.186 -0.443 1.076
0.189 -0.443 1.077
0.192 -0.444 1.078
0.195 -0.444 1.078
0.198 -0.444 1.078
0.201 -0.443 1.077
0.204 -0.443 1.077
0.206 -0.443 1.077
0.209 -0.443 1.077
0.212 -0.443 1.076
0.215 -0.443 1.076
0.218 -0.443 1.075
0.221 -0.442 1.075
0.223 -0.442 1.074
0.226 -0.442 1.074
0.229 -0.442 1.073
0.232 -0.441 1.072
0.235 -0.441 1.072
0.237 -0.441 1.072
0.240 -0.441 1.071
0.243 -0.441 1.071
0.246 -0.441 1.071
0.249 -0.441 1.071
0.252 -0.441 1.071
0.255 -0.441 1.072
0.258 -0.441 1.072
0.261 -0.442 1.072
0.264 -0.442 1.072
0.267 -0.442 1.073
0.270 -0.442 1.073
0.273 -0.442 1.074
0.276 -0.443 1.075
0.279 -0.443 1.076
0.283 -0.444 1.078
0.286 -0.445 1.079
0.289 -0.445 1.080
0.292 -0.445 1.081
0.295 -0.445 1.081
0.298 -0.446 1.082
0.301 -0.446 1.082
0.304 -0.446 1.082
0.308 -0.446 1.083
0.311 -0.447 1.084
0.314 -0.447 1.085
0.317 -0.447 1.086
0.320 -0.448 1.087
0.324 -0.448 1.087
0.327 -0.448 1.088
0.330 -0.449 1.089
0.333 -0.449 1.090
0.337 -0.450 1.092
0.340 -0.451 1.093
0.343 -0.451 1.094
0.347 -0.451 1.095
0.350 -0.452 1.096
0.354 -0.452 1.097
0.357 -0.453 1.099
0.360 -0.454 1.100
0.364 -0.454 1.101
0.367 -0.455 1.103
0.371 -0.456 1.105
0.374 -0.456 1.106
0.378 -0.457 1.108
0.382 -0.458 1.109
0.385 -0.458 1.111
0.389 -0.459 1.113
0.393 -0.460 1.115
0.396 -0.461 1.117
0.400 -0.462 1.119
0.404 -0.462 1.120
0.408 -0.463 1.122
0.411 -0.464 1.123
0.414 -0.464 1.124
0.418 -0.465 1.126
0.422 -0.466 1.129
0.427 -0.468 1.132
0.432 -0.469 1.137
0.437 -0.472 1.142
0.441 -0.473 1.146
0.446 -0.475 1.150
0.451 -0.476 1.153
0.455 -0.478 1.156
0.460 -0.479 1.160
0.465 -0.481 1.165
0.470 -0.484 1.171
0.477 -0.488 1.180
0.486 -0.493 1.193
0.497 -0.501 1.213
0.512 -0.513 1.240
0.530 -0.527 1.274
0.546 -0.540 1.305
0.557 -0.547 1.322
0.564 -0.551 1.331
0.569 -0.552 1.333
0.573 -0.552 1.334
0.577 -0.553 1.335
0.581 -0.553 1.336
0.585 -0.554 1.337
0.589 -0.554 1.337
0.593 -0.554 1.338
0.597 -0.554 1.337
0.600 -0.554 1.337
0.604 -0.554 1.337
0.608 -0.554 1.337
0.612 -0.555 1.338
0.616 -0.555 1.338
0.619 -0.555 1.337
0.623 -0.555 1.337
0.627 -0.555 1.338
0.631 -0.556 1.339
0.635 -0.556 1.340
0.639 -0.556 1.339
0.643 -0.556 1.339
0.647 -0.556 1.339
0.650 -0.556 1.339
0.653 -0.556 1.338
0.657 -0.556 1.338
0.661 -0.556 1.338
0.665 -0.557 1.339
0.669 -0.556 1.338
0.672 -0.556 1.338
0.676 -0.556 1.337
0.680 -0.557 1.338
0.684 -0.557 1.338
0.688 -0.557 1.338
0.691 -0.556 1.336
0.694 -0.556 1.336
0.698 -0.556 1.335
0.701 -0.556 1.335
0.705 -0.556 1.334
0.708 -0.556 1.333
0.712 -0.556 1.333
0.716 -0.556 1.333
0.719 -0.556 1.332
0.723 -0.556 1.331
0.727 -0.556 1.331
0.731 -0.557 1.333
0.735 -0.556 1.332
0.738 -0.556 1.332
0.741 -0.556 1.330
0.745 -0.556 1.329
0.748 -0.555 1.328
0.752 -0.556 1.328
0.756 -0.556 1.328
0.760 -0.556 1.328
0.763 -0.556 1.328
0.767 -0.556 1.327
0.771 -0.556 1.327
0.774 -0.556 1.326
0.777 -0.555 1.324
0.780 -0.555 1.322
0.784 -0.555 1.322
0.788 -0.556 1.323
0.792 -0.556 1.323
0.796 -0.556 1.322
0.799 -0.555 1.321
0.802 -0.555 1.320
0.806 -0.555 1.320
0.810 -0.555 1.320
0.814 -0.556 1.320
0.818 -0.556 1.319
0.821 -0.556 1.319
0.825 -0.556 1.319
0.830 -0.557 1.320
0.834 -0.557 1.319
0.837 -0.556 1.318
0.840 -0.556 1.316
0.843 -0.556 1.315
0.846 -0.555 1.314
0.849 -0.555 1.312
0.853 -0.555 1.312
0.858 -0.556 1.313
0.861 -0.555 1.311
0.864 -0.555 1.310
0.868 -0.555 1.310
0.872 -0.555 1.310
0.874 -0.554 1.307
0.878 -0.554 1.306
0.883 -0.555 1.308
0.887 -0.556 1.308
0.890 -0.555 1.306
0.894 -0.555 1.305
0.898 -0.555 1.305
0.902 -0.556 1.306
0.906 -0.556 1.306
0.907 -0.555 1.301
0.000 0.000 0.000
0.000 0.000 0.000
0.000 0.000 0.000
0.000 0.000 0.000
0.000 0.000 0.000
0.000 0.000 0.000
0.000 0.000 0.000
0.000 0.000 0.000
0.000 0.000 0.000
0.000 0.000 0.000
0.000 0.000 0.000
0.000 0.000 0.000
0.000 0.000 0.000
0.000 0.000 0.000
0.000 0.000 0.000
0.000 0.000 0.000
0.000 0.000 0.000
0.000 0.000 0.000
0.000 0.000 0.000
0.000 0.000 0.000
0.000 0.000 0.000
0.000 0.000 0.000
-5.320 -3.392 7.939
-5.303 -3.395 7.951
-5.287 -3.399 7.964
-5.271 -3.403 7.977
-5.254 -3.407 7.989
0.000 0.000 0.000
0.000 0.000 0.000
0.000 0.000 0.000
0.000 0.000 0.000
0.000 0.000 0.000
0.000 0.000 0.000
0.000 0.000 0.000
0.000 0.000 0.000
0.000 0.000 0.000
0.000 0.000 0.000
0.000 0.000 0.000
0.000 0.000 0.000
0.000 0.000 0.000
0.000 0.000 0.000
0.000 0.000 0.000
0.000 0.000 0.000
0.000 0.000 0.000
0.000 0.000 0.000
