ply
format ascii 1.0
comment VCGLIB generated
element vertex 2484
property float x
property float y
property float z
end_header
0.141 -0.406 0.814
0.144 -0.408 0.818
0.147 -0.410 0.822
0.150 -0.412 0.826
0.153 -0.414 0.830
0.156 -0.416 0.834
0.159 -0.418 0.838
0.162 -0.420 0.842
0.165 -0.423 0.846
0.168 -0.425 0.851
0.171 -0.427 0.855
0.175 -0.429 0.860
0.178 -0.432 0.865
0.181 -0.435 0.870
0.185 -0.437 0.876
0.188 -0.440 0.881
0.192 -0.443 0.887
0.196 -0.446 0.892
0.200 -0.449 0.899
0.204 -0.453 0.907
0.209 -0.458 0.917
0.219 -0.476 0.953
0.237 -0.508 1.016
0.253 -0.537 1.075
0.263 -0.550 1.102
0.266 -0.552 1.104
0.270 -0.553 1.107
0.273 -0.554 1.108
0.276 -0.554 1.109
0.280 -0.554 1.109
0.283 -0.555 1.110
0.286 -0.555 1.110
0.289 -0.555 1.111
0.292 -0.556 1.111
0.296 -0.556 1.112
0.299 -0.557 1.113
0.302 -0.558 1.115
0.306 -0.558 1.116
0.310 -0.560 1.119
0.313 -0.561 1.122
0.317 -0.562 1.124
0.321 -0.564 1.127
0.325 -0.565 1.130
0.330 -0.568 1.136
0.335 -0.572 1.143
0.341 -0.577 1.154
0.347 -0.582 1.163
0.353 -0.586 1.171
0.358 -0.589 1.176
0.361 -0.590 1.178
0.365 -0.590 1.178
0.368 -0.590 1.178
0.371 -0.590 1.178
0.375 -0.591 1.179
0.378 -0.591 1.179
0.381 -0.591 1.179
0.385 -0.591 1.180
0.389 -0.592 1.182
0.392 -0.592 1.182
0.395 -0.592 1.181
0.398 -0.592 1.181
0.402 -0.593 1.183
0.405 -0.593 1.183
0.409 -0.594 1.184
0.412 -0.594 1.184
0.416 -0.594 1.184
0.418 -0.593 1.182
0.422 -0.593 1.182
0.425 -0.593 1.181
0.428 -0.593 1.182
0.431 -0.593 1.182
0.435 -0.593 1.182
0.438 -0.594 1.182
0.441 -0.594 1.182
0.445 -0.594 1.183
0.448 -0.594 1.183
0.451 -0.594 1.183
0.455 -0.594 1.183
0.458 -0.595 1.183
0.461 -0.595 1.183
0.465 -0.595 1.183
0.468 -0.595 1.183
0.471 -0.595 1.183
0.474 -0.595 1.183
0.478 -0.595 1.182
0.481 -0.595 1.183
0.484 -0.595 1.182
0.487 -0.595 1.181
0.490 -0.595 1.181
0.494 -0.594 1.181
0.497 -0.594 1.180
0.500 -0.595 1.181
0.504 -0.595 1.181
0.507 -0.596 1.182
0.510 -0.595 1.181
0.514 -0.596 1.181
0.517 -0.596 1.181
0.521 -0.597 1.183
0.524 -0.596 1.182
0.527 -0.596 1.182
0.531 -0.596 1.181
0.535 -0.597 1.183
0.538 -0.597 1.182
0.541 -0.597 1.182
0.544 -0.597 1.181
0.547 -0.597 1.181
0.551 -0.597 1.181
0.554 -0.597 1.181
0.557 -0.597 1.180
0.560 -0.597 1.180
0.564 -0.598 1.181
0.568 -0.598 1.182
0.571 -0.598 1.182
0.575 -0.598 1.182
0.577 -0.598 1.180
0.580 -0.598 1.180
0.583 -0.596 1.177
0.586 -0.597 1.177
0.589 -0.597 1.177
0.594 -0.598 1.179
0.596 -0.597 1.177
0.599 -0.597 1.176
0.602 -0.597 1.176
0.606 -0.597 1.175
0.610 -0.598 1.176
0.614 -0.598 1.178
0.617 -0.599 1.178
0.621 -0.599 1.178
0.625 -0.599 1.179
0.629 -0.601 1.181
0.633 -0.601 1.181
0.635 -0.600 1.179
0.637 -0.599 1.176
0.642 -0.601 1.179
0.649 -0.604 1.184
0.654 -0.606 1.188
0.659 -0.607 1.190
0.665 -0.609 1.194
0.668 -0.609 1.193
0.676 -0.613 1.201
0.680 -0.615 1.203
0.689 -0.620 1.212
0.000 0.000 0.000
0.000 0.000 0.000
0.000 0.000 0.000
0.000 0.000 0.000
0.000 0.000 0.000
0.000 0.000 0.000
0.000 0.000 0.000
0.000 0.000 0.000
0.000 0.000 0.000
0.691 -0.592 1.154
0.691 -0.589 1.148
0.000 0.000 0.000
0.000 0.000 0.000
0.000 0.000 0.000
0.000 0.000 0.000
0.000 0.000 0.000
0.000 0.000 0.000
0.000 0.000 0.000
0.000 0.000 0.000
0.000 0.000 0.000
0.000 0.000 0.000
0.000 0.000 0.000
0.000 0.000 0.000
0.000 0.000 0.000
0.000 0.000 0.000
0.000 0.000 0.000
0.000 0.000 0.000
0.000 0.000 0.000
0.000 0.000 0.000
0.000 0.000 0.000
0.000 0.000 0.000
0.000 0.000 0.000
0.000 0.000 0.000
0.000 0.000 0.000
0.000 0.000 0.000
0.000 0.000 0.000
0.776 -0.591 1.135
0.782 -0.593 1.138
0.785 -0.593 1.137
0.789 -0.593 1.137
0.796 -0.596 1.142
0.802 -0.598 1.146
0.806 -0.598 1.145
0.807 -0.597 1.142
0.000 0.000 0.000
0.000 0.000 0.000
0.000 0.000 0.000
0.000 0.000 0.000
0.000 0.000 0.000
0.000 0.000 0.000
0.000 0.000 0.000
0.000 0.000 0.000
0.000 0.000 0.000
0.000 0.000 0.000
0.000 0.000 0.000
0.000 0.000 0.000
0.000 0.000 0.000
0.000 0.000 0.000
0.000 0.000 0.000
0.000 0.000 0.000
0.000 0.000 0.000
0.000 0.000 0.000
0.000 0.000 0.000
0.000 0.000 0.000
0.000 0.000 0.000
0.000 0.000 0.000
0.000 0.000 0.000
0.000 0.000 0.000
0.000 0.000 0.000
0.000 0.000 0.000
0.000 0.000 0.000
0.000 0.000 0.000
0.000 0.000 0.000
0.000 0.000 0.000
0.000 0.000 0.000
0.000 0.000 0.000
0.000 0.000 0.000
0.000 0.000 0.000
0.000 0.000 0.000
0.000 0.000 0.000
0.000 0.000 0.000
0.000 0.000 0.000
0.000 0.000 0.000
0.000 0.000 0.000
0.000 0.000 0.000
0.000 0.000 0.000
0.000 0.000 0.000
0.000 0.000 0.000
0.000 0.000 0.000
0.000 0.000 0.000
0.000 0.000 0.000
0.000 0.000 0.000
0.000 0.000 0.000
-0.309 -0.268 0.520
-0.320 -0.279 0.542
-0.328 -0.288 0.559
-0.332 -0.293 0.568
-0.329 -0.291 0.566
-0.320 -0.284 0.552
-0.314 -0.281 0.545
-0.317 -0.285 0.554
-0.319 -0.288 0.560
-0.318 -0.288 0.561
-0.318 -0.290 0.564
-0.318 -0.292 0.568
-0.317 -0.292 0.569
-0.316 -0.293 0.570
-0.315 -0.293 0.571
-0.315 -0.295 0.575
-0.314 -0.295 0.576
-0.315 -0.298 0.581
-0.316 -0.300 0.585
-0.316 -0.302 0.589
-0.316 -0.303 0.592
-0.316 -0.304 0.594
-0.315 -0.305 0.597
-0.315 -0.307 0.601
-0.314 -0.308 0.602
-0.314 -0.309 0.604
-0.312 -0.309 0.605
-0.312 -0.310 0.608
-0.312 -0.312 0.611
-0.311 -0.313 0.613
-0.310 -0.313 0.615
-0.310 -0.315 0.617
-0.310 -0.317 0.621
-0.310 -0.319 0.626
-0.312 -0.322 0.632
-0.312 -0.324 0.636
-0.310 -0.324 0.637
-0.309 -0.325 0.638
-0.308 -0.326 0.640
-0.308 -0.327 0.643
-0.308 -0.329 0.647
-0.308 -0.331 0.652
-0.308 -0.333 0.655
-0.308 -0.335 0.658
-0.306 -0.335 0.659
-0.306 -0.337 0.663
-0.308 -0.341 0.671
-0.311 -0.347 0.683
-0.311 -0.349 0.687
-0.309 -0.348 0.687
-0.307 -0.348 0.686
-0.307 -0.350 0.690
-0.306 -0.352 0.694
-0.306 -0.354 0.698
-0.305 -0.354 0.699
-0.304 -0.356 0.702
-0.303 -0.356 0.703
-0.302 -0.358 0.706
-0.301 -0.359 0.708
-0.300 -0.360 0.711
-0.299 -0.361 0.713
-0.299 -0.363 0.718
-0.299 -0.366 0.723
-0.299 -0.368 0.727
-0.298 -0.370 0.731
-0.299 -0.374 0.740
-0.302 -0.380 0.751
-0.304 -0.385 0.761
-0.304 -0.388 0.767
-0.303 -0.390 0.771
-0.302 -0.391 0.773
-0.301 -0.392 0.775
-0.300 -0.393 0.778
-0.299 -0.395 0.782
-0.298 -0.396 0.784
-0.296 -0.397 0.786
-0.295 -0.398 0.788
-0.293 -0.399 0.790
-0.292 -0.400 0.793
-0.291 -0.402 0.796
-0.290 -0.403 0.798
-0.288 -0.404 0.801
-0.287 -0.405 0.803
-0.286 -0.406 0.805
-0.284 -0.407 0.807
-0.283 -0.408 0.809
-0.281 -0.409 0.811
-0.279 -0.410 0.813
-0.277 -0.410 0.814
-0.275 -0.410 0.814
-0.273 -0.410 0.813
-0.270 -0.410 0.813
-0.268 -0.410 0.813
-0.266 -0.410 0.813
-0.263 -0.409 0.812
-0.261 -0.409 0.811
-0.257 -0.406 0.807
-0.243 -0.388 0.770
-0.214 -0.343 0.682
-0.201 -0.326 0.648
-0.195 -0.320 0.635
-0.194 -0.319 0.635
-0.192 -0.319 0.634
-0.190 -0.320 0.635
-0.188 -0.319 0.634
-0.186 -0.319 0.634
-0.185 -0.319 0.634
-0.183 -0.319 0.635
-0.181 -0.319 0.635
-0.179 -0.319 0.634
-0.178 -0.319 0.633
-0.176 -0.319 0.633
-0.174 -0.319 0.634
-0.172 -0.319 0.633
-0.170 -0.318 0.633
-0.169 -0.318 0.633
-0.167 -0.318 0.633
-0.165 -0.319 0.634
-0.164 -0.319 0.634
-0.162 -0.319 0.634
-0.160 -0.319 0.634
-0.159 -0.320 0.637
-0.158 -0.322 0.640
-0.157 -0.323 0.643
-0.156 -0.325 0.647
-0.159 -0.333 0.663
-0.167 -0.355 0.706
-0.174 -0.374 0.744
-0.179 -0.388 0.773
-0.193 -0.424 0.843
-0.202 -0.451 0.897
-0.203 -0.458 0.912
-0.202 -0.461 0.917
-0.201 -0.464 0.925
-0.201 -0.470 0.935
-0.200 -0.474 0.944
-0.199 -0.479 0.953
-0.198 -0.482 0.961
-0.197 -0.485 0.965
-0.195 -0.487 0.969
-0.196 -0.495 0.986
-0.198 -0.509 1.014
-0.198 -0.516 1.028
-0.196 -0.517 1.030
-0.193 -0.516 1.029
-0.190 -0.516 1.028
-0.187 -0.517 1.029
-0.185 -0.518 1.031
-0.182 -0.519 1.033
-0.179 -0.518 1.032
-0.176 -0.517 1.030
-0.173 -0.516 1.028
-0.171 -0.516 1.029
-0.168 -0.518 1.033
-0.164 -0.513 1.022
-0.156 -0.495 0.987
-0.148 -0.481 0.958
-0.144 -0.476 0.948
-0.141 -0.474 0.945
-0.138 -0.473 0.942
-0.136 -0.472 0.941
-0.133 -0.471 0.939
-0.130 -0.471 0.938
-0.127 -0.470 0.937
-0.125 -0.470 0.936
-0.122 -0.469 0.936
-0.119 -0.468 0.933
-0.116 -0.466 0.930
-0.114 -0.466 0.929
-0.111 -0.466 0.928
-0.108 -0.464 0.926
-0.105 -0.462 0.922
-0.102 -0.461 0.919
-0.100 -0.460 0.917
-0.097 -0.459 0.915
-0.094 -0.458 0.913
-0.092 -0.457 0.911
-0.089 -0.456 0.910
-0.086 -0.456 0.908
-0.084 -0.455 0.907
-0.081 -0.454 0.905
-0.079 -0.453 0.903
-0.076 -0.452 0.901
-0.073 -0.451 0.900
-0.071 -0.450 0.898
-0.068 -0.449 0.896
-0.066 -0.448 0.894
-0.063 -0.447 0.892
-0.061 -0.447 0.891
-0.058 -0.446 0.890
-0.056 -0.445 0.888
-0.053 -0.444 0.886
-0.051 -0.444 0.885
-0.048 -0.443 0.883
-0.046 -0.442 0.881
-0.043 -0.441 0.879
-0.041 -0.440 0.878
-0.038 -0.440 0.877
-0.036 -0.439 0.875
-0.033 -0.438 0.874
-0.031 -0.437 0.871
-0.029 -0.436 0.870
-0.026 -0.435 0.868
-0.024 -0.434 0.866
-0.021 -0.433 0.864
-0.019 -0.433 0.863
-0.017 -0.432 0.862
-0.014 -0.432 0.862
-0.012 -0.432 0.862
-0.010 -0.432 0.861
-0.007 -0.431 0.860
-0.005 -0.430 0.858
-0.003 -0.429 0.856
0.000 -0.429 0.855
0.002 -0.428 0.853
0.004 -0.427 0.852
0.007 -0.426 0.850
0.009 -0.425 0.848
0.011 -0.424 0.846
0.013 -0.424 0.845
0.016 -0.422 0.843
0.018 -0.421 0.840
0.020 -0.421 0.840
0.022 -0.421 0.839
0.025 -0.420 0.839
0.027 -0.420 0.837
0.029 -0.419 0.835
0.031 -0.418 0.834
0.033 -0.417 0.832
0.036 -0.416 0.831
0.038 -0.416 0.829
0.040 -0.415 0.827
0.042 -0.414 0.825
0.044 -0.413 0.823
0.046 -0.412 0.822
0.049 -0.412 0.821
0.051 -0.411 0.820
0.053 -0.410 0.818
0.055 -0.409 0.816
0.057 -0.409 0.815
0.059 -0.408 0.814
0.061 -0.407 0.812
0.063 -0.406 0.810
0.065 -0.406 0.809
0.067 -0.405 0.807
0.070 -0.404 0.806
0.072 -0.404 0.805
0.074 -0.403 0.804
0.076 -0.402 0.802
0.078 -0.401 0.800
0.080 -0.400 0.799
0.082 -0.400 0.798
0.084 -0.399 0.796
0.086 -0.399 0.795
0.088 -0.398 0.793
0.090 -0.397 0.791
0.092 -0.397 0.791
0.094 -0.395 0.788
0.095 -0.394 0.785
0.097 -0.392 0.781
0.099 -0.392 0.781
0.101 -0.391 0.780
0.103 -0.391 0.779
0.105 -0.390 0.777
0.107 -0.389 0.776
0.109 -0.389 0.776
0.111 -0.390 0.778
0.114 -0.392 0.781
0.117 -0.394 0.785
0.119 -0.395 0.788
0.122 -0.397 0.791
0.125 -0.399 0.795
0.127 -0.400 0.798
0.130 -0.402 0.801
0.133 -0.404 0.804
0.135 -0.405 0.807
0.138 -0.407 0.811
0.141 -0.409 0.815
0.144 -0.411 0.819
0.147 -0.413 0.823
0.150 -0.415 0.826
0.153 -0.417 0.830
0.156 -0.419 0.834
0.159 -0.421 0.839
0.162 -0.423 0.842
0.165 -0.425 0.847
0.168 -0.427 0.851
0.171 -0.430 0.856
0.175 -0.432 0.860
0.178 -0.435 0.866
0.182 -0.437 0.871
0.185 -0.440 0.876
0.188 -0.442 0.881
0.192 -0.446 0.887
0.196 -0.448 0.893
0.200 -0.452 0.900
0.204 -0.456 0.907
0.209 -0.462 0.919
0.221 -0.481 0.958
0.242 -0.522 1.038
0.256 -0.545 1.085
0.263 -0.555 1.104
0.267 -0.555 1.105
0.270 -0.556 1.106
0.273 -0.556 1.107
0.276 -0.557 1.108
0.279 -0.557 1.108
0.283 -0.558 1.109
0.286 -0.558 1.110
0.289 -0.559 1.111
0.293 -0.559 1.112
0.296 -0.560 1.114
0.300 -0.561 1.116
0.303 -0.562 1.117
0.307 -0.563 1.119
0.310 -0.564 1.122
0.314 -0.566 1.125
0.318 -0.568 1.129
0.323 -0.570 1.133
0.328 -0.573 1.139
0.333 -0.577 1.146
0.339 -0.581 1.155
0.344 -0.586 1.163
0.349 -0.588 1.169
0.353 -0.590 1.172
0.357 -0.591 1.174
0.360 -0.591 1.174
0.363 -0.591 1.174
0.367 -0.591 1.173
0.370 -0.591 1.174
0.373 -0.591 1.174
0.377 -0.592 1.174
0.380 -0.592 1.174
0.383 -0.592 1.175
0.387 -0.593 1.176
0.391 -0.593 1.177
0.394 -0.593 1.177
0.397 -0.594 1.178
0.401 -0.594 1.178
0.404 -0.594 1.179
0.407 -0.595 1.179
0.411 -0.595 1.179
0.414 -0.594 1.178
0.417 -0.594 1.178
0.420 -0.594 1.177
0.423 -0.593 1.176
0.426 -0.593 1.175
0.429 -0.594 1.176
0.433 -0.594 1.177
0.436 -0.594 1.177
0.439 -0.594 1.176
0.443 -0.595 1.177
0.446 -0.595 1.177
0.450 -0.595 1.178
0.452 -0.595 1.177
0.456 -0.595 1.177
0.459 -0.595 1.176
0.462 -0.595 1.177
0.466 -0.595 1.177
0.469 -0.595 1.177
0.472 -0.595 1.176
0.476 -0.595 1.177
0.479 -0.595 1.176
0.482 -0.596 1.177
0.485 -0.595 1.176
0.489 -0.596 1.176
0.491 -0.595 1.175
0.495 -0.595 1.176
0.498 -0.595 1.175
0.502 -0.596 1.177
0.505 -0.596 1.176
0.509 -0.596 1.177
0.512 -0.596 1.176
0.516 -0.597 1.177
0.519 -0.597 1.177
0.522 -0.597 1.177
0.525 -0.597 1.176
0.529 -0.597 1.177
0.532 -0.598 1.177
0.536 -0.598 1.177
0.538 -0.597 1.175
0.542 -0.597 1.176
0.545 -0.598 1.176
0.549 -0.598 1.177
0.552 -0.598 1.176
0.555 -0.598 1.176
0.559 -0.598 1.176
0.562 -0.599 1.177
0.565 -0.599 1.176
0.569 -0.599 1.177
0.572 -0.599 1.176
0.575 -0.599 1.175
0.578 -0.598 1.174
0.581 -0.598 1.173
0.584 -0.598 1.173
0.588 -0.598 1.173
0.591 -0.598 1.172
0.594 -0.598 1.171
0.596 -0.597 1.170
0.601 -0.598 1.172
0.604 -0.598 1.172
0.607 -0.598 1.171
0.611 -0.599 1.172
0.616 -0.601 1.176
0.620 -0.601 1.176
0.623 -0.602 1.176
0.627 -0.602 1.177
0.631 -0.602 1.177
0.633 -0.602 1.175
0.636 -0.601 1.174
0.641 -0.603 1.177
0.648 -0.606 1.183
0.654 -0.609 1.187
0.660 -0.611 1.191
0.664 -0.612 1.193
0.671 -0.615 1.198
0.677 -0.618 1.203
0.685 -0.622 1.210
0.000 0.000 0.000
0.000 0.000 0.000
0.000 0.000 0.000
0.000 0.000 0.000
0.000 0.000 0.000
0.000 0.000 0.000
0.000 0.000 0.000
0.000 0.000 0.000
0.000 0.000 0.000
0.685 -0.593 1.149
0.681 -0.587 1.137
0.684 -0.587 1.136
0.000 0.000 0.000
1.177 -1.000 1.935
0.000 0.000 0.000
0.000 0.000 0.000
0.000 0.000 0.000
0.000 0.000 0.000
0.000 0.000 0.000
0.000 0.000 0.000
0.000 0.000 0.000
0.000 0.000 0.000
0.000 0.000 0.000
0.000 0.000 0.000
0.000 0.000 0.000
0.000 0.000 0.000
0.000 0.000 0.000
0.000 0.000 0.000
0.000 0.000 0.000
0.000 0.000 0.000
0.000 0.000 0.000
0.000 0.000 0.000
0.000 0.000 0.000
0.000 0.000 0.000
0.767 -0.595 1.137
0.768 -0.593 1.133
0.773 -0.594 1.135
0.777 -0.595 1.136
0.783 -0.597 1.139
0.786 -0.597 1.139
0.789 -0.597 1.137
0.794 -0.598 1.139
0.801 -0.600 1.143
0.802 -0.599 1.139
0.804 -0.598 1.136
0.000 0.000 0.000
0.000 0.000 0.000
0.000 0.000 0.000
0.000 0.000 0.000
0.000 0.000 0.000
0.000 0.000 0.000
0.000 0.000 0.000
0.000 0.000 0.000
0.000 0.000 0.000
0.000 0.000 0.000
0.000 0.000 0.000
0.000 0.000 0.000
0.000 0.000 0.000
0.000 0.000 0.000
0.000 0.000 0.000
0.000 0.000 0.000
0.000 0.000 0.000
0.000 0.000 0.000
0.000 0.000 0.000
0.000 0.000 0.000
0.000 0.000 0.000
0.000 0.000 0.000
0.000 0.000 0.000
0.000 0.000 0.000
0.000 0.000 0.000
0.000 0.000 0.000
0.000 0.000 0.000
0.000 0.000 0.000
0.000 0.000 0.000
0.000 0.000 0.000
0.000 0.000 0.000
0.000 0.000 0.000
0.000 0.000 0.000
0.000 0.000 0.000
0.000 0.000 0.000
0.000 0.000 0.000
0.000 0.000 0.000
0.000 0.000 0.000
0.000 0.000 0.000
0.000 0.000 0.000
0.000 0.000 0.000
0.000 0.000 0.000
0.000 0.000 0.000
0.000 0.000 0.000
0.000 0.000 0.000
0.000 0.000 0.000
0.000 0.000 0.000
0.000 0.000 0.000
0.000 0.000 0.000
-0.306 -0.267 0.515
-0.317 -0.278 0.537
-0.325 -0.287 0.553
-0.329 -0.291 0.562
-0.326 -0.290 0.560
-0.316 -0.282 0.546
-0.311 -0.280 0.541
-0.315 -0.284 0.550
-0.317 -0.288 0.556
-0.316 -0.288 0.557
-0.316 -0.289 0.560
-0.316 -0.291 0.564
-0.316 -0.292 0.567
-0.315 -0.293 0.568
-0.314 -0.294 0.569
-0.312 -0.293 0.569
-0.313 -0.296 0.573
-0.314 -0.298 0.578
-0.315 -0.301 0.584
-0.315 -0.302 0.587
-0.315 -0.303 0.589
-0.313 -0.303 0.589
-0.313 -0.304 0.592
-0.313 -0.307 0.596
-0.315 -0.310 0.603
-0.314 -0.310 0.604
-0.312 -0.310 0.604
-0.311 -0.311 0.605
-0.310 -0.312 0.608
-0.310 -0.313 0.610
-0.309 -0.314 0.612
-0.309 -0.316 0.616
-0.309 -0.318 0.619
-0.309 -0.319 0.622
-0.310 -0.322 0.629
-0.310 -0.324 0.633
-0.310 -0.326 0.636
-0.309 -0.326 0.637
-0.308 -0.327 0.640
-0.307 -0.328 0.641
-0.306 -0.329 0.644
-0.306 -0.331 0.647
-0.306 -0.333 0.651
-0.306 -0.335 0.655
-0.306 -0.337 0.660
-0.305 -0.338 0.661
-0.307 -0.342 0.669
-0.310 -0.347 0.679
-0.311 -0.350 0.686
-0.309 -0.351 0.687
-0.307 -0.351 0.687
-0.307 -0.353 0.691
-0.307 -0.355 0.696
-0.306 -0.356 0.698
-0.304 -0.356 0.698
-0.303 -0.357 0.700
-0.303 -0.358 0.703
-0.301 -0.359 0.705
-0.301 -0.361 0.708
-0.299 -0.362 0.710
-0.299 -0.363 0.714
-0.299 -0.365 0.717
-0.299 -0.368 0.723
-0.298 -0.370 0.726
-0.298 -0.372 0.731
-0.299 -0.375 0.738
-0.302 -0.381 0.750
-0.303 -0.386 0.760
-0.304 -0.390 0.768
-0.303 -0.392 0.771
-0.302 -0.393 0.773
-0.301 -0.394 0.775
-0.299 -0.395 0.777
-0.299 -0.397 0.781
-0.298 -0.398 0.784
-0.296 -0.399 0.786
-0.295 -0.401 0.789
-0.293 -0.401 0.790
-0.292 -0.402 0.793
-0.291 -0.404 0.795
-0.290 -0.405 0.798
-0.288 -0.406 0.800
-0.287 -0.407 0.802
-0.285 -0.408 0.804
-0.284 -0.409 0.807
-0.282 -0.410 0.809
-0.281 -0.411 0.811
-0.279 -0.412 0.812
-0.277 -0.413 0.814
-0.275 -0.412 0.814
-0.273 -0.412 0.813
-0.270 -0.412 0.813
-0.268 -0.412 0.813
-0.266 -0.412 0.813
-0.263 -0.411 0.812
-0.261 -0.410 0.810
-0.257 -0.409 0.807
-0.244 -0.391 0.771
-0.215 -0.347 0.686
-0.202 -0.329 0.649
-0.196 -0.322 0.636
-0.194 -0.321 0.635
-0.192 -0.321 0.635
-0.190 -0.321 0.635
-0.188 -0.321 0.635
-0.187 -0.321 0.635
-0.185 -0.321 0.635
-0.183 -0.321 0.635
-0.182 -0.321 0.635
-0.179 -0.321 0.634
-0.178 -0.321 0.634
-0.176 -0.320 0.633
-0.174 -0.320 0.633
-0.172 -0.320 0.633
-0.171 -0.320 0.633
-0.169 -0.320 0.633
-0.167 -0.320 0.633
-0.165 -0.320 0.633
-0.164 -0.320 0.633
-0.162 -0.320 0.633
-0.160 -0.320 0.634
-0.159 -0.322 0.637
-0.159 -0.324 0.641
-0.157 -0.325 0.643
-0.157 -0.327 0.647
-0.158 -0.335 0.662
-0.167 -0.356 0.705
-0.174 -0.375 0.743
-0.178 -0.390 0.772
-0.192 -0.425 0.841
-0.202 -0.453 0.896
-0.203 -0.461 0.912
-0.202 -0.464 0.918
-0.201 -0.467 0.925
-0.201 -0.473 0.936
-0.200 -0.477 0.944
-0.199 -0.481 0.952
-0.198 -0.484 0.958
-0.196 -0.486 0.962
-0.195 -0.489 0.968
-0.197 -0.500 0.991
-0.198 -0.512 1.014
-0.197 -0.516 1.022
-0.194 -0.516 1.022
-0.192 -0.516 1.023
-0.189 -0.517 1.024
-0.187 -0.517 1.025
-0.184 -0.518 1.027
-0.182 -0.519 1.028
-0.179 -0.518 1.026
-0.175 -0.517 1.025
-0.172 -0.516 1.023
-0.170 -0.517 1.024
-0.167 -0.518 1.027
-0.163 -0.514 1.019
-0.155 -0.497 0.985
-0.148 -0.483 0.958
-0.144 -0.478 0.948
-0.141 -0.477 0.945
-0.138 -0.475 0.942
-0.135 -0.474 0.941
-0.133 -0.474 0.939
-0.130 -0.473 0.938
-0.127 -0.472 0.937
-0.125 -0.472 0.936
-0.122 -0.472 0.936
-0.119 -0.471 0.934
-0.116 -0.469 0.930
-0.114 -0.469 0.929
-0.111 -0.468 0.928
-0.108 -0.467 0.926
-0.105 -0.465 0.921
-0.102 -0.463 0.919
-0.100 -0.462 0.917
-0.097 -0.461 0.915
-0.094 -0.460 0.913
-0.092 -0.460 0.912
-0.089 -0.459 0.910
-0.087 -0.458 0.909
-0.084 -0.457 0.907
-0.081 -0.456 0.905
-0.079 -0.455 0.903
-0.076 -0.455 0.902
-0.073 -0.454 0.900
-0.071 -0.453 0.898
-0.068 -0.452 0.896
-0.066 -0.451 0.894
-0.063 -0.450 0.892
-0.061 -0.449 0.891
-0.058 -0.448 0.889
-0.056 -0.448 0.888
-0.053 -0.447 0.886
-0.051 -0.446 0.885
-0.048 -0.445 0.883
-0.046 -0.444 0.881
-0.043 -0.443 0.879
-0.041 -0.443 0.878
-0.038 -0.442 0.877
-0.036 -0.441 0.876
-0.033 -0.440 0.873
-0.031 -0.440 0.872
-0.029 -0.439 0.870
-0.026 -0.438 0.869
-0.024 -0.437 0.867
-0.021 -0.436 0.864
-0.019 -0.435 0.863
-0.017 -0.435 0.862
-0.014 -0.435 0.862
-0.012 -0.435 0.863
-0.010 -0.434 0.861
-0.007 -0.433 0.859
-0.005 -0.432 0.858
-0.003 -0.432 0.856
0.000 -0.431 0.854
0.002 -0.430 0.853
0.004 -0.429 0.851
0.007 -0.428 0.850
0.009 -0.427 0.848
0.011 -0.427 0.846
0.013 -0.426 0.845
0.016 -0.425 0.842
0.018 -0.423 0.840
0.020 -0.423 0.839
0.022 -0.423 0.839
0.025 -0.423 0.839
0.027 -0.422 0.837
0.029 -0.421 0.835
0.031 -0.420 0.834
0.033 -0.420 0.832
0.036 -0.419 0.831
0.038 -0.418 0.829
0.040 -0.417 0.827
0.042 -0.416 0.825
0.044 -0.415 0.823
0.046 -0.414 0.822
0.049 -0.414 0.821
0.051 -0.413 0.820
0.053 -0.412 0.818
0.055 -0.412 0.817
0.057 -0.411 0.815
0.059 -0.410 0.814
0.061 -0.409 0.812
0.063 -0.409 0.810
0.065 -0.408 0.809
0.067 -0.407 0.807
0.070 -0.406 0.806
0.072 -0.406 0.805
0.074 -0.405 0.803
0.076 -0.405 0.802
0.078 -0.404 0.800
0.080 -0.403 0.799
0.082 -0.402 0.798
0.084 -0.402 0.796
0.086 -0.401 0.795
0.088 -0.400 0.793
0.090 -0.399 0.791
0.092 -0.399 0.790
0.094 -0.397 0.788
0.095 -0.396 0.785
0.097 -0.394 0.782
0.099 -0.394 0.781
0.101 -0.393 0.780
0.103 -0.393 0.779
0.105 -0.392 0.776
0.107 -0.391 0.776
0.109 -0.391 0.776
0.112 -0.393 0.779
0.114 -0.394 0.782
0.117 -0.396 0.786
0.119 -0.398 0.788
0.122 -0.399 0.791
0.125 -0.401 0.794
0.127 -0.403 0.798
0.130 -0.404 0.801
0.133 -0.406 0.804
0.135 -0.407 0.807
0.138 -0.409 0.811
0.141 -0.411 0.815
0.144 -0.413 0.819
0.147 -0.415 0.823
0.150 -0.417 0.827
0.153 -0.419 0.831
0.156 -0.421 0.835
0.159 -0.423 0.839
0.162 -0.426 0.843
0.165 -0.428 0.847
0.168 -0.430 0.852
0.172 -0.432 0.857
0.175 -0.435 0.861
0.178 -0.437 0.866
0.182 -0.440 0.872
0.185 -0.443 0.877
0.189 -0.445 0.882
0.192 -0.448 0.888
0.196 -0.451 0.894
0.200 -0.455 0.900
0.204 -0.458 0.907
0.210 -0.465 0.921
0.222 -0.488 0.965
0.000 0.000 0.000
0.258 -0.553 1.094
0.264 -0.558 1.105
0.267 -0.559 1.106
0.270 -0.559 1.106
0.273 -0.559 1.107
0.276 -0.560 1.108
0.280 -0.560 1.109
0.283 -0.561 1.111
0.287 -0.562 1.112
0.290 -0.563 1.114
0.293 -0.564 1.115
0.297 -0.565 1.117
0.300 -0.566 1.119
0.304 -0.567 1.121
0.308 -0.568 1.123
0.312 -0.569 1.126
0.316 -0.572 1.130
0.321 -0.575 1.137
0.326 -0.579 1.144
0.331 -0.582 1.151
0.336 -0.585 1.157
0.341 -0.588 1.161
0.345 -0.590 1.166
0.348 -0.590 1.167
0.352 -0.591 1.168
0.355 -0.591 1.168
0.359 -0.592 1.169
0.362 -0.592 1.169
0.365 -0.592 1.169
0.368 -0.592 1.169
0.372 -0.592 1.169
0.375 -0.593 1.170
0.379 -0.593 1.170
0.382 -0.593 1.170
0.385 -0.593 1.171
0.389 -0.594 1.172
0.393 -0.595 1.173
0.396 -0.594 1.173
0.399 -0.595 1.174
0.402 -0.595 1.173
0.406 -0.595 1.174
0.409 -0.595 1.174
0.412 -0.595 1.174
0.415 -0.595 1.173
0.418 -0.595 1.173
0.421 -0.594 1.171
0.424 -0.594 1.171
0.428 -0.595 1.172
0.431 -0.595 1.173
0.434 -0.595 1.172
0.437 -0.595 1.171
0.441 -0.595 1.172
0.444 -0.595 1.172
0.448 -0.596 1.173
0.451 -0.596 1.173
0.454 -0.596 1.172
0.457 -0.596 1.172
0.460 -0.596 1.171
0.464 -0.596 1.172
0.467 -0.596 1.172
0.470 -0.596 1.172
0.473 -0.596 1.172
0.477 -0.596 1.172
0.480 -0.597 1.172
0.483 -0.596 1.172
0.487 -0.596 1.171
0.489 -0.595 1.169
0.492 -0.595 1.169
0.496 -0.596 1.170
0.500 -0.597 1.171
0.503 -0.597 1.171
0.506 -0.596 1.170
0.509 -0.597 1.171
0.513 -0.597 1.170
0.516 -0.597 1.171
0.519 -0.596 1.169
0.522 -0.597 1.169
0.525 -0.597 1.169
0.530 -0.598 1.172
0.533 -0.598 1.171
0.536 -0.598 1.170
0.539 -0.598 1.170
0.543 -0.599 1.172
0.547 -0.599 1.172
0.549 -0.598 1.170
0.552 -0.598 1.169
0.556 -0.598 1.170
0.559 -0.599 1.170
0.563 -0.599 1.170
0.566 -0.599 1.170
0.569 -0.599 1.170
0.572 -0.598 1.168
0.575 -0.598 1.168
0.578 -0.598 1.167
0.582 -0.599 1.169
0.586 -0.599 1.169
0.589 -0.600 1.169
0.591 -0.599 1.166
0.595 -0.599 1.167
0.599 -0.600 1.168
0.602 -0.600 1.168
0.606 -0.600 1.168
0.609 -0.601 1.169
0.614 -0.602 1.172
0.618 -0.603 1.173
0.622 -0.603 1.173
0.625 -0.603 1.172
0.628 -0.603 1.171
0.631 -0.603 1.171
0.635 -0.603 1.171
0.640 -0.606 1.175
0.646 -0.608 1.179
0.653 -0.611 1.185
0.656 -0.611 1.185
0.662 -0.614 1.189
0.670 -0.618 1.196
0.679 -0.623 1.207
0.000 0.000 0.000
0.000 0.000 0.000
0.000 0.000 0.000
0.000 0.000 0.000
0.000 0.000 0.000
0.000 0.000 0.000
0.000 0.000 0.000
0.000 0.000 0.000
0.000 0.000 0.000
0.000 0.000 0.000
0.667 -0.580 1.118
0.673 -0.583 1.123
0.000 0.000 0.000
1.174 -1.007 1.939
1.178 -1.006 1.935
0.000 0.000 0.000
0.000 0.000 0.000
0.000 0.000 0.000
0.000 0.000 0.000
0.000 0.000 0.000
0.000 0.000 0.000
0.000 0.000 0.000
0.000 0.000 0.000
0.000 0.000 0.000
0.000 0.000 0.000
0.000 0.000 0.000
0.000 0.000 0.000
0.000 0.000 0.000
0.000 0.000 0.000
0.000 0.000 0.000
0.000 0.000 0.000
0.000 0.000 0.000
0.000 0.000 0.000
0.756 -0.594 1.131
0.759 -0.594 1.131
0.764 -0.595 1.132
0.767 -0.595 1.132
0.771 -0.596 1.131
0.775 -0.596 1.132
0.782 -0.599 1.137
0.785 -0.599 1.136
0.789 -0.600 1.136
0.792 -0.600 1.135
0.794 -0.599 1.133
0.798 -0.600 1.134
0.798 -0.597 1.128
0.000 0.000 0.000
0.000 0.000 0.000
0.000 0.000 0.000
0.000 0.000 0.000
0.000 0.000 0.000
0.000 0.000 0.000
0.000 0.000 0.000
0.000 0.000 0.000
0.000 0.000 0.000
0.000 0.000 0.000
0.000 0.000 0.000
0.000 0.000 0.000
0.000 0.000 0.000
0.000 0.000 0.000
0.000 0.000 0.000
0.000 0.000 0.000
0.000 0.000 0.000
0.000 0.000 0.000
0.000 0.000 0.000
0.000 0.000 0.000
0.000 0.000 0.000
0.000 0.000 0.000
0.000 0.000 0.000
0.000 0.000 0.000
0.000 0.000 0.000
0.000 0.000 0.000
0.000 0.000 0.000
0.000 0.000 0.000
0.000 0.000 0.000
0.000 0.000 0.000
0.000 0.000 0.000
0.000 0.000 0.000
0.000 0.000 0.000
0.000 0.000 0.000
0.000 0.000 0.000
0.000 0.000 0.000
0.000 0.000 0.000
0.000 0.000 0.000
0.000 0.000 0.000
0.000 0.000 0.000
0.000 0.000 0.000
0.000 0.000 0.000
0.000 0.000 0.000
0.000 0.000 0.000
0.000 0.000 0.000
0.000 0.000 0.000
0.000 0.000 0.000
0.000 0.000 0.000
0.000 0.000 0.000
-0.305 -0.268 0.514
-0.316 -0.278 0.534
-0.322 -0.285 0.547
-0.325 -0.289 0.555
-0.322 -0.288 0.553
-0.313 -0.281 0.541
-0.309 -0.279 0.536
-0.313 -0.284 0.546
-0.316 -0.288 0.553
-0.313 -0.287 0.553
-0.313 -0.288 0.555
-0.313 -0.290 0.558
-0.313 -0.291 0.561
-0.313 -0.293 0.564
-0.312 -0.293 0.564
-0.312 -0.294 0.567
-0.312 -0.296 0.571
-0.313 -0.298 0.576
-0.314 -0.301 0.581
-0.315 -0.303 0.586
-0.313 -0.303 0.586
-0.311 -0.303 0.585
-0.309 -0.303 0.586
-0.312 -0.307 0.593
-0.314 -0.311 0.601
-0.314 -0.313 0.605
-0.311 -0.311 0.603
-0.309 -0.311 0.602
-0.309 -0.312 0.605
-0.309 -0.314 0.608
-0.309 -0.315 0.611
-0.309 -0.318 0.616
-0.309 -0.319 0.619
-0.309 -0.321 0.622
-0.309 -0.323 0.627
-0.310 -0.326 0.633
-0.310 -0.328 0.636
-0.309 -0.329 0.638
-0.308 -0.329 0.639
-0.306 -0.329 0.640
-0.306 -0.331 0.642
-0.306 -0.332 0.646
-0.306 -0.334 0.650
-0.306 -0.336 0.654
-0.306 -0.339 0.659
-0.305 -0.340 0.662
-0.306 -0.342 0.666
-0.309 -0.348 0.677
-0.311 -0.352 0.686
-0.310 -0.353 0.688
-0.308 -0.353 0.687
-0.308 -0.355 0.692
-0.308 -0.357 0.697
-0.307 -0.358 0.699
-0.305 -0.358 0.698
-0.303 -0.359 0.700
-0.302 -0.360 0.702
-0.301 -0.361 0.704
-0.300 -0.362 0.707
-0.300 -0.364 0.710
-0.299 -0.366 0.714
-0.299 -0.368 0.718
-0.299 -0.370 0.722
-0.298 -0.372 0.726
-0.298 -0.374 0.730
-0.298 -0.377 0.737
-0.301 -0.382 0.748
-0.303 -0.389 0.760
-0.304 -0.392 0.767
-0.304 -0.394 0.771
-0.302 -0.395 0.773
-0.301 -0.396 0.775
-0.299 -0.397 0.777
-0.299 -0.399 0.780
-0.298 -0.400 0.783
-0.296 -0.402 0.786
-0.295 -0.402 0.788
-0.293 -0.403 0.789
-0.292 -0.404 0.792
-0.291 -0.406 0.796
-0.290 -0.407 0.798
-0.288 -0.408 0.800
-0.287 -0.409 0.802
-0.285 -0.410 0.804
-0.284 -0.411 0.806
-0.283 -0.413 0.809
-0.281 -0.414 0.811
-0.279 -0.414 0.813
-0.277 -0.415 0.813
-0.275 -0.415 0.814
-0.273 -0.415 0.814
-0.271 -0.415 0.814
-0.268 -0.414 0.813
-0.266 -0.414 0.813
-0.263 -0.413 0.812
-0.261 -0.413 0.810
-0.257 -0.411 0.807
-0.245 -0.395 0.775
-0.216 -0.352 0.690
-0.202 -0.331 0.650
-0.196 -0.324 0.636
-0.194 -0.323 0.635
-0.192 -0.323 0.635
-0.190 -0.323 0.635
-0.188 -0.323 0.635
-0.187 -0.323 0.634
-0.185 -0.323 0.634
-0.183 -0.323 0.635
-0.182 -0.323 0.635
-0.180 -0.323 0.634
-0.178 -0.322 0.634
-0.176 -0.322 0.633
-0.174 -0.322 0.633
-0.172 -0.322 0.633
-0.171 -0.322 0.633
-0.169 -0.322 0.633
-0.167 -0.322 0.633
-0.165 -0.322 0.633
-0.164 -0.322 0.633
-0.162 -0.322 0.634
-0.160 -0.322 0.634
-0.159 -0.324 0.637
-0.159 -0.326 0.641
-0.158 -0.327 0.644
-0.157 -0.329 0.647
-0.158 -0.336 0.662
-0.166 -0.357 0.703
-0.174 -0.377 0.743
-0.178 -0.392 0.771
-0.192 -0.426 0.839
-0.202 -0.454 0.895
-0.203 -0.463 0.912
-0.202 -0.467 0.919
-0.202 -0.471 0.927
-0.201 -0.476 0.937
-0.200 -0.480 0.945
-0.199 -0.483 0.952
-0.198 -0.485 0.956
-0.196 -0.487 0.959
-0.195 -0.493 0.972
-0.198 -0.505 0.996
-0.198 -0.513 1.010
-0.196 -0.515 1.014
-0.193 -0.515 1.015
-0.191 -0.516 1.017
-0.188 -0.518 1.020
-0.186 -0.518 1.021
-0.184 -0.519 1.023
-0.181 -0.519 1.022
-0.178 -0.518 1.021
-0.175 -0.517 1.020
-0.172 -0.517 1.019
-0.169 -0.517 1.019
-0.167 -0.518 1.021
-0.163 -0.516 1.018
-0.156 -0.503 0.992
-0.149 -0.488 0.962
-0.144 -0.481 0.948
-0.141 -0.479 0.944
-0.138 -0.478 0.942
-0.135 -0.477 0.940
-0.133 -0.476 0.939
-0.130 -0.475 0.937
-0.127 -0.475 0.937
-0.125 -0.475 0.936
-0.122 -0.474 0.936
-0.119 -0.473 0.933
-0.116 -0.472 0.930
-0.114 -0.471 0.929
-0.111 -0.471 0.929
-0.108 -0.469 0.925
-0.105 -0.467 0.921
-0.102 -0.466 0.919
-0.100 -0.465 0.917
-0.097 -0.464 0.915
-0.094 -0.463 0.913
-0.092 -0.462 0.912
-0.089 -0.462 0.910
-0.087 -0.461 0.909
-0.084 -0.460 0.907
-0.081 -0.459 0.905
-0.079 -0.458 0.903
-0.076 -0.457 0.902
-0.074 -0.456 0.900
-0.071 -0.455 0.898
-0.068 -0.454 0.896
-0.066 -0.453 0.894
-0.063 -0.452 0.892
-0.061 -0.452 0.891
-0.058 -0.451 0.890
-0.056 -0.450 0.888
-0.053 -0.449 0.886
-0.051 -0.448 0.884
-0.048 -0.448 0.883
-0.046 -0.447 0.881
-0.043 -0.446 0.879
-0.041 -0.445 0.878
-0.038 -0.445 0.877
-0.036 -0.444 0.875
-0.033 -0.443 0.873
-0.031 -0.442 0.872
-0.029 -0.441 0.871
-0.026 -0.440 0.869
-0.024 -0.439 0.867
-0.021 -0.438 0.864
-0.019 -0.437 0.863
-0.017 -0.437 0.862
-0.014 -0.437 0.863
-0.012 -0.437 0.863
-0.010 -0.436 0.861
-0.007 -0.435 0.859
-0.005 -0.435 0.858
-0.003 -0.434 0.856
0.000 -0.433 0.855
0.002 -0.432 0.853
0.004 -0.432 0.851
0.007 -0.431 0.849
0.009 -0.430 0.848
0.011 -0.429 0.846
0.013 -0.428 0.845
0.016 -0.427 0.842
0.018 -0.426 0.840
0.020 -0.425 0.839
0.022 -0.425 0.839
0.025 -0.425 0.839
0.027 -0.424 0.837
0.029 -0.423 0.835
0.031 -0.423 0.834
0.033 -0.422 0.832
0.036 -0.421 0.831
0.038 -0.420 0.829
0.040 -0.419 0.827
0.042 -0.418 0.825
0.044 -0.417 0.823
0.046 -0.417 0.822
0.049 -0.416 0.821
0.051 -0.415 0.819
0.053 -0.414 0.817
0.055 -0.414 0.816
0.057 -0.413 0.815
0.059 -0.412 0.814
0.061 -0.412 0.812
0.063 -0.411 0.810
0.065 -0.410 0.809
0.068 -0.409 0.808
0.070 -0.409 0.806
0.072 -0.408 0.805
0.074 -0.407 0.803
0.076 -0.407 0.802
0.078 -0.406 0.800
0.080 -0.405 0.799
0.082 -0.404 0.798
0.084 -0.404 0.796
0.086 -0.403 0.795
0.088 -0.402 0.793
0.090 -0.401 0.791
0.092 -0.401 0.790
0.094 -0.400 0.788
0.095 -0.398 0.785
0.097 -0.397 0.783
0.099 -0.396 0.781
0.101 -0.396 0.780
0.103 -0.395 0.779
0.105 -0.394 0.777
0.107 -0.394 0.776
0.109 -0.394 0.776
0.112 -0.395 0.779
0.114 -0.397 0.782
0.117 -0.398 0.785
0.119 -0.400 0.788
0.122 -0.401 0.791
0.125 -0.403 0.795
0.127 -0.405 0.798
0.130 -0.407 0.801
0.133 -0.408 0.805
0.135 -0.410 0.808
0.138 -0.412 0.811
0.141 -0.414 0.815
0.144 -0.416 0.819
0.147 -0.418 0.823
0.150 -0.420 0.827
0.153 -0.422 0.831
0.156 -0.424 0.835
0.159 -0.426 0.839
0.162 -0.428 0.843
0.165 -0.430 0.848
0.168 -0.433 0.853
0.172 -0.435 0.857
0.175 -0.437 0.862
0.178 -0.440 0.867
0.182 -0.443 0.872
0.185 -0.445 0.877
0.189 -0.448 0.883
0.193 -0.451 0.889
0.196 -0.454 0.895
0.200 -0.458 0.901
0.204 -0.461 0.908
0.211 -0.470 0.925
0.000 0.000 0.000
0.251 -0.547 1.077
0.259 -0.559 1.100
0.264 -0.562 1.106
0.267 -0.562 1.107
0.270 -0.563 1.108
0.274 -0.563 1.109
0.277 -0.564 1.110
0.280 -0.565 1.111
0.284 -0.566 1.113
0.287 -0.567 1.115
0.291 -0.567 1.116
0.294 -0.568 1.117
0.298 -0.569 1.119
0.301 -0.570 1.122
0.305 -0.572 1.125
0.309 -0.574 1.128
0.314 -0.576 1.133
0.318 -0.579 1.139
0.324 -0.583 1.146
0.329 -0.586 1.153
0.333 -0.589 1.157
0.337 -0.589 1.158
0.340 -0.590 1.160
0.344 -0.591 1.162
0.347 -0.592 1.162
0.350 -0.591 1.162
0.354 -0.592 1.163
0.357 -0.592 1.163
0.360 -0.592 1.163
0.363 -0.592 1.163
0.367 -0.593 1.164
0.370 -0.593 1.164
0.374 -0.593 1.165
0.377 -0.594 1.165
0.380 -0.594 1.166
0.384 -0.595 1.167
0.387 -0.595 1.167
0.391 -0.596 1.169
0.394 -0.596 1.168
0.397 -0.595 1.168
0.401 -0.596 1.168
0.404 -0.596 1.168
0.407 -0.596 1.169
0.411 -0.596 1.169
0.414 -0.596 1.169
0.416 -0.596 1.167
0.419 -0.595 1.167
0.423 -0.595 1.167
0.426 -0.596 1.167
0.430 -0.596 1.168
0.433 -0.596 1.168
0.436 -0.596 1.168
0.440 -0.597 1.168
0.443 -0.596 1.168
0.446 -0.596 1.167
0.449 -0.596 1.167
0.452 -0.596 1.167
0.455 -0.596 1.167
0.459 -0.597 1.167
0.462 -0.597 1.167
0.465 -0.597 1.167
0.468 -0.596 1.166
0.471 -0.596 1.166
0.475 -0.597 1.166
0.478 -0.597 1.167
0.481 -0.597 1.167
0.484 -0.597 1.166
0.487 -0.596 1.164
0.490 -0.596 1.164
0.494 -0.596 1.164
0.498 -0.598 1.166
0.501 -0.597 1.165
0.504 -0.597 1.165
0.507 -0.597 1.164
0.510 -0.597 1.165
0.514 -0.598 1.165
0.517 -0.598 1.166
0.520 -0.598 1.165
0.524 -0.598 1.165
0.527 -0.598 1.165
0.530 -0.598 1.164
0.533 -0.598 1.163
0.537 -0.599 1.165
0.540 -0.599 1.166
0.543 -0.599 1.165
0.546 -0.598 1.164
0.549 -0.598 1.163
0.553 -0.598 1.163
0.556 -0.599 1.164
0.560 -0.599 1.163
0.563 -0.599 1.163
0.565 -0.598 1.161
0.568 -0.598 1.161
0.571 -0.598 1.160
0.575 -0.598 1.161
0.579 -0.599 1.162
0.583 -0.600 1.163
0.586 -0.600 1.163
0.590 -0.600 1.163
0.592 -0.599 1.161
0.596 -0.600 1.163
0.599 -0.600 1.162
0.603 -0.600 1.162
0.607 -0.601 1.163
0.612 -0.603 1.166
0.616 -0.604 1.168
0.619 -0.604 1.167
0.621 -0.603 1.165
0.625 -0.603 1.166
0.630 -0.605 1.168
0.635 -0.606 1.170
0.641 -0.610 1.176
0.646 -0.611 1.178
0.652 -0.613 1.182
0.655 -0.614 1.183
0.662 -0.616 1.187
0.670 -0.621 1.197
0.680 -0.627 1.207
0.000 0.000 0.000
0.000 0.000 0.000
0.000 0.000 0.000
0.000 0.000 0.000
0.000 0.000 0.000
0.000 0.000 0.000
0.000 0.000 0.000
0.000 0.000 0.000
0.000 0.000 0.000
0.651 -0.572 1.097
0.652 -0.571 1.093
0.660 -0.575 1.101
0.000 0.000 0.000
1.174 -1.013 1.938
1.181 -1.014 1.939
0.000 0.000 0.000
0.000 0.000 0.000
0.000 0.000 0.000
0.000 0.000 0.000
0.000 0.000 0.000
0.000 0.000 0.000
0.000 0.000 0.000
0.000 0.000 0.000
0.000 0.000 0.000
0.000 0.000 0.000
0.000 0.000 0.000
0.000 0.000 0.000
0.000 0.000 0.000
0.000 0.000 0.000
0.000 0.000 0.000
0.748 -0.599 1.136
0.747 -0.595 1.128
0.751 -0.595 1.128
0.754 -0.596 1.128
0.760 -0.598 1.131
0.763 -0.598 1.130
0.766 -0.598 1.130
0.768 -0.597 1.127
0.774 -0.599 1.129
0.779 -0.600 1.132
0.782 -0.600 1.132
0.784 -0.599 1.129
0.789 -0.600 1.130
0.790 -0.599 1.127
0.792 -0.598 1.125
0.797 -0.599 1.126
0.000 0.000 0.000
0.000 0.000 0.000
0.000 0.000 0.000
0.000 0.000 0.000
0.000 0.000 0.000
0.000 0.000 0.000
0.000 0.000 0.000
0.000 0.000 0.000
0.000 0.000 0.000
0.000 0.000 0.000
0.000 0.000 0.000
0.000 0.000 0.000
0.000 0.000 0.000
0.000 0.000 0.000
0.000 0.000 0.000
0.000 0.000 0.000
0.000 0.000 0.000
0.000 0.000 0.000
0.000 0.000 0.000
0.000 0.000 0.000
0.000 0.000 0.000
0.000 0.000 0.000
0.000 0.000 0.000
0.000 0.000 0.000
0.000 0.000 0.000
0.000 0.000 0.000
0.000 0.000 0.000
0.000 0.000 0.000
0.000 0.000 0.000
0.000 0.000 0.000
0.000 0.000 0.000
0.000 0.000 0.000
0.000 0.000 0.000
0.000 0.000 0.000
0.000 0.000 0.000
0.000 0.000 0.000
0.000 0.000 0.000
0.000 0.000 0.000
0.000 0.000 0.000
0.000 0.000 0.000
0.000 0.000 0.000
0.000 0.000 0.000
0.000 0.000 0.000
0.000 0.000 0.000
0.000 0.000 0.000
0.000 0.000 0.000
0.000 0.000 0.000
0.000 0.000 0.000
0.000 0.000 0.000
-0.304 -0.268 0.511
-0.312 -0.277 0.528
-0.319 -0.285 0.543
-0.321 -0.287 0.548
-0.318 -0.286 0.546
-0.310 -0.280 0.535
-0.306 -0.278 0.531
-0.311 -0.284 0.542
-0.313 -0.287 0.548
-0.310 -0.286 0.547
-0.310 -0.287 0.550
-0.311 -0.290 0.554
-0.312 -0.291 0.558
-0.310 -0.291 0.558
-0.311 -0.294 0.563
-0.310 -0.295 0.565
-0.311 -0.297 0.569
-0.311 -0.299 0.573
-0.313 -0.302 0.579
-0.313 -0.303 0.582
-0.313 -0.304 0.585
-0.309 -0.303 0.582
-0.308 -0.303 0.583
-0.310 -0.306 0.589
-0.313 -0.311 0.599
-0.313 -0.313 0.603
-0.311 -0.313 0.602
-0.308 -0.311 0.600
-0.309 -0.314 0.604
-0.309 -0.315 0.607
-0.308 -0.317 0.611
-0.308 -0.318 0.614
-0.309 -0.321 0.619
-0.308 -0.322 0.621
-0.309 -0.324 0.626
-0.310 -0.328 0.633
-0.311 -0.330 0.637
-0.309 -0.330 0.637
-0.308 -0.330 0.638
-0.306 -0.331 0.639
-0.306 -0.332 0.642
-0.306 -0.334 0.646
-0.306 -0.336 0.649
-0.305 -0.338 0.653
-0.306 -0.340 0.659
-0.305 -0.341 0.660
-0.305 -0.343 0.665
-0.308 -0.349 0.675
-0.310 -0.354 0.685
-0.309 -0.354 0.686
-0.307 -0.354 0.685
-0.306 -0.355 0.689
-0.307 -0.358 0.694
-0.306 -0.359 0.696
-0.304 -0.360 0.698
-0.303 -0.360 0.699
-0.302 -0.362 0.702
-0.301 -0.363 0.704
-0.301 -0.365 0.708
-0.300 -0.366 0.710
-0.299 -0.368 0.714
-0.299 -0.369 0.717
-0.299 -0.372 0.722
-0.298 -0.374 0.726
-0.298 -0.376 0.730
-0.298 -0.378 0.735
-0.300 -0.384 0.747
-0.303 -0.390 0.759
-0.304 -0.395 0.767
-0.304 -0.396 0.771
-0.302 -0.397 0.773
-0.301 -0.398 0.774
-0.299 -0.399 0.776
-0.298 -0.401 0.780
-0.297 -0.402 0.783
-0.296 -0.403 0.785
-0.295 -0.404 0.787
-0.293 -0.405 0.789
-0.292 -0.407 0.792
-0.291 -0.408 0.795
-0.290 -0.410 0.798
-0.288 -0.411 0.800
-0.287 -0.411 0.802
-0.285 -0.412 0.804
-0.284 -0.413 0.806
-0.282 -0.415 0.808
-0.281 -0.416 0.811
-0.279 -0.416 0.812
-0.277 -0.417 0.813
-0.275 -0.417 0.814
-0.273 -0.417 0.814
-0.271 -0.417 0.814
-0.268 -0.417 0.813
-0.266 -0.416 0.813
-0.263 -0.416 0.812
-0.261 -0.415 0.811
-0.258 -0.414 0.808
-0.246 -0.398 0.777
-0.219 -0.357 0.697
-0.203 -0.334 0.652
-0.196 -0.326 0.637
-0.194 -0.325 0.635
-0.192 -0.325 0.635
-0.190 -0.325 0.635
-0.189 -0.325 0.635
-0.187 -0.325 0.635
-0.185 -0.325 0.635
-0.183 -0.325 0.635
-0.182 -0.325 0.636
-0.180 -0.324 0.634
-0.178 -0.324 0.634
-0.176 -0.324 0.633
-0.174 -0.324 0.633
-0.172 -0.323 0.633
-0.171 -0.324 0.633
-0.169 -0.323 0.633
-0.167 -0.324 0.633
-0.165 -0.323 0.633
-0.164 -0.324 0.633
-0.162 -0.324 0.633
-0.160 -0.324 0.633
-0.159 -0.326 0.637
-0.159 -0.328 0.641
-0.158 -0.329 0.644
-0.157 -0.331 0.647
-0.158 -0.338 0.661
-0.166 -0.358 0.701
-0.173 -0.379 0.741
-0.178 -0.393 0.770
-0.190 -0.426 0.833
-0.201 -0.455 0.892
-0.203 -0.465 0.911
-0.203 -0.470 0.920
-0.202 -0.474 0.928
-0.202 -0.479 0.939
-0.201 -0.483 0.946
-0.199 -0.486 0.952
-0.197 -0.487 0.954
-0.195 -0.489 0.958
-0.196 -0.498 0.975
-0.198 -0.508 0.996
-0.197 -0.513 1.004
-0.194 -0.514 1.007
-0.192 -0.515 1.010
-0.190 -0.517 1.013
-0.188 -0.518 1.015
-0.185 -0.519 1.017
-0.183 -0.520 1.018
-0.180 -0.519 1.017
-0.177 -0.518 1.016
-0.174 -0.518 1.015
-0.171 -0.517 1.014
-0.168 -0.517 1.014
-0.166 -0.518 1.016
-0.163 -0.518 1.016
-0.158 -0.512 1.003
-0.151 -0.497 0.974
-0.145 -0.487 0.954
-0.142 -0.483 0.947
-0.138 -0.481 0.943
-0.136 -0.480 0.940
-0.133 -0.479 0.939
-0.130 -0.478 0.937
-0.127 -0.478 0.937
-0.125 -0.477 0.936
-0.122 -0.477 0.935
-0.119 -0.476 0.933
-0.116 -0.474 0.930
-0.114 -0.474 0.930
-0.111 -0.473 0.929
-0.108 -0.472 0.926
-0.105 -0.470 0.921
-0.102 -0.468 0.919
-0.100 -0.467 0.916
-0.097 -0.466 0.915
-0.094 -0.465 0.913
-0.092 -0.465 0.912
-0.089 -0.464 0.911
-0.087 -0.463 0.909
-0.084 -0.462 0.907
-0.081 -0.461 0.905
-0.079 -0.460 0.903
-0.076 -0.460 0.902
-0.074 -0.459 0.900
-0.071 -0.458 0.898
-0.068 -0.457 0.896
-0.066 -0.456 0.894
-0.063 -0.455 0.892
-0.061 -0.454 0.891
-0.058 -0.453 0.890
-0.056 -0.453 0.888
-0.053 -0.452 0.886
-0.051 -0.451 0.884
-0.048 -0.450 0.883
-0.046 -0.449 0.881
-0.043 -0.448 0.879
-0.041 -0.448 0.878
-0.038 -0.447 0.876
-0.036 -0.446 0.875
-0.033 -0.445 0.873
-0.031 -0.444 0.872
-0.029 -0.444 0.871
-0.026 -0.443 0.869
-0.024 -0.442 0.866
-0.021 -0.440 0.864
-0.019 -0.440 0.863
-0.017 -0.440 0.863
-0.014 -0.440 0.863
-0.012 -0.440 0.863
-0.010 -0.439 0.861
-0.007 -0.438 0.859
-0.005 -0.437 0.857
-0.003 -0.436 0.856
0.000 -0.435 0.854
0.002 -0.435 0.853
0.004 -0.434 0.851
0.007 -0.433 0.850
0.009 -0.432 0.848
0.011 -0.432 0.847
0.013 -0.430 0.845
0.016 -0.429 0.842
0.018 -0.428 0.839
0.020 -0.428 0.839
0.022 -0.428 0.839
0.025 -0.428 0.839
0.027 -0.426 0.836
0.029 -0.425 0.835
0.031 -0.425 0.833
0.033 -0.424 0.832
0.036 -0.423 0.831
0.038 -0.422 0.828
0.040 -0.421 0.826
0.042 -0.420 0.825
0.044 -0.420 0.823
0.046 -0.419 0.822
0.049 -0.418 0.820
0.051 -0.417 0.819
0.053 -0.417 0.818
0.055 -0.416 0.816
0.057 -0.415 0.815
0.059 -0.414 0.813
0.061 -0.414 0.811
0.063 -0.413 0.810
0.065 -0.412 0.809
0.068 -0.412 0.808
0.070 -0.411 0.806
0.072 -0.410 0.805
0.074 -0.409 0.803
0.076 -0.409 0.802
0.078 -0.408 0.800
0.080 -0.407 0.799
0.082 -0.407 0.798
0.084 -0.406 0.797
0.086 -0.405 0.795
0.088 -0.404 0.793
0.090 -0.403 0.791
0.092 -0.403 0.790
0.094 -0.402 0.789
0.095 -0.400 0.785
0.097 -0.399 0.783
0.099 -0.398 0.781
0.101 -0.398 0.780
0.103 -0.397 0.778
0.105 -0.396 0.776
0.107 -0.396 0.776
0.109 -0.396 0.776
0.112 -0.398 0.779
0.114 -0.399 0.783
0.117 -0.401 0.785
0.119 -0.402 0.788
0.122 -0.404 0.792
0.125 -0.406 0.795
0.127 -0.407 0.798
0.130 -0.409 0.802
0.133 -0.411 0.805
0.136 -0.413 0.809
0.138 -0.414 0.812
0.141 -0.416 0.816
0.144 -0.418 0.820
0.147 -0.420 0.823
0.150 -0.422 0.827
0.153 -0.424 0.832
0.156 -0.427 0.836
0.159 -0.428 0.839
0.162 -0.430 0.843
0.165 -0.433 0.848
0.169 -0.435 0.853
0.172 -0.438 0.858
0.175 -0.440 0.862
0.178 -0.443 0.867
0.182 -0.445 0.872
0.185 -0.448 0.877
0.189 -0.451 0.884
0.193 -0.454 0.890
0.197 -0.457 0.896
0.200 -0.460 0.902
0.205 -0.465 0.911
0.212 -0.476 0.931
0.230 -0.509 0.997
0.252 -0.553 1.082
0.260 -0.564 1.104
0.264 -0.566 1.109
0.268 -0.567 1.110
0.271 -0.567 1.110
0.274 -0.568 1.111
0.278 -0.569 1.113
0.281 -0.569 1.114
0.285 -0.570 1.116
0.288 -0.571 1.118
0.292 -0.572 1.119
0.295 -0.573 1.122
0.299 -0.575 1.125
0.303 -0.577 1.128
0.307 -0.579 1.132
0.311 -0.581 1.136
0.316 -0.584 1.141
0.321 -0.587 1.147
0.325 -0.589 1.152
0.329 -0.591 1.156
0.333 -0.592 1.156
0.336 -0.592 1.156
0.339 -0.591 1.156
0.343 -0.592 1.158
0.346 -0.592 1.157
0.349 -0.592 1.157
0.352 -0.592 1.157
0.356 -0.593 1.159
0.359 -0.593 1.158
0.362 -0.593 1.158
0.365 -0.593 1.158
0.368 -0.593 1.158
0.372 -0.593 1.158
0.376 -0.594 1.160
0.379 -0.595 1.161
0.383 -0.596 1.162
0.386 -0.596 1.162
0.389 -0.596 1.163
0.392 -0.596 1.163
0.396 -0.596 1.163
0.398 -0.596 1.162
0.402 -0.596 1.163
0.406 -0.597 1.164
0.409 -0.597 1.165
0.412 -0.597 1.164
0.415 -0.596 1.163
0.418 -0.596 1.162
0.421 -0.597 1.163
0.424 -0.597 1.162
0.428 -0.597 1.163
0.431 -0.597 1.162
0.435 -0.597 1.163
0.438 -0.597 1.163
0.441 -0.598 1.163
0.444 -0.597 1.162
0.447 -0.597 1.162
0.450 -0.597 1.161
0.454 -0.597 1.162
0.457 -0.597 1.162
0.461 -0.598 1.164
0.464 -0.598 1.163
0.467 -0.598 1.162
0.469 -0.597 1.160
0.473 -0.598 1.162
0.477 -0.598 1.163
0.480 -0.599 1.163
0.483 -0.598 1.162
0.486 -0.598 1.161
0.489 -0.598 1.161
0.493 -0.598 1.162
0.496 -0.598 1.161
0.499 -0.599 1.161
0.502 -0.598 1.161
0.505 -0.598 1.160
0.508 -0.598 1.160
0.512 -0.599 1.161
0.515 -0.598 1.160
0.518 -0.599 1.161
0.521 -0.598 1.159
0.525 -0.599 1.160
0.528 -0.599 1.159
0.531 -0.599 1.160
0.534 -0.599 1.159
0.538 -0.599 1.159
0.540 -0.599 1.158
0.544 -0.599 1.158
0.547 -0.599 1.157
0.550 -0.599 1.158
0.554 -0.599 1.158
0.558 -0.600 1.160
0.561 -0.600 1.158
0.564 -0.600 1.158
0.567 -0.599 1.157
0.570 -0.599 1.157
0.573 -0.599 1.156
0.577 -0.600 1.157
0.580 -0.600 1.158
0.584 -0.601 1.159
0.586 -0.600 1.156
0.589 -0.600 1.155
0.593 -0.600 1.156
0.597 -0.601 1.157
0.601 -0.602 1.158
0.605 -0.603 1.160
0.610 -0.604 1.162
0.613 -0.604 1.162
0.615 -0.603 1.159
0.619 -0.604 1.160
0.624 -0.606 1.163
0.630 -0.608 1.167
0.636 -0.610 1.172
0.640 -0.611 1.173
0.643 -0.611 1.172
0.649 -0.614 1.176
0.654 -0.616 1.180
0.663 -0.621 1.190
0.673 -0.627 1.201
0.000 0.000 0.000
0.000 0.000 0.000
0.000 0.000 0.000
0.000 0.000 0.000
0.000 0.000 0.000
0.000 0.000 0.000
0.000 0.000 0.000
0.000 0.000 0.000
0.000 0.000 0.000
0.000 0.000 0.000
0.630 -0.557 1.062
0.638 -0.561 1.069
0.000 0.000 0.000
0.000 0.000 0.000
1.173 -1.017 1.935
1.184 -1.022 1.944
0.000 0.000 0.000
0.000 0.000 0.000
0.000 0.000 0.000
0.000 0.000 0.000
0.000 0.000 0.000
0.000 0.000 0.000
0.000 0.000 0.000
0.000 0.000 0.000
0.000 0.000 0.000
0.000 0.000 0.000
0.000 0.000 0.000
0.000 0.000 0.000
0.000 0.000 0.000
0.735 -0.596 1.126
0.739 -0.597 1.126
0.742 -0.597 1.125
0.747 -0.598 1.127
0.750 -0.598 1.126
0.755 -0.600 1.128
0.758 -0.600 1.128
0.760 -0.599 1.126
0.765 -0.600 1.127
0.768 -0.600 1.126
0.771 -0.600 1.126
0.775 -0.600 1.125
0.778 -0.600 1.124
0.781 -0.600 1.124
0.784 -0.600 1.122
0.788 -0.600 1.123
0.790 -0.600 1.121
0.792 -0.599 1.118
0.000 0.000 0.000
0.000 0.000 0.000
0.000 0.000 0.000
0.000 0.000 0.000
0.000 0.000 0.000
0.000 0.000 0.000
0.000 0.000 0.000
0.000 0.000 0.000
0.000 0.000 0.000
0.000 0.000 0.000
0.000 0.000 0.000
0.000 0.000 0.000
0.000 0.000 0.000
0.000 0.000 0.000
0.000 0.000 0.000
0.000 0.000 0.000
0.000 0.000 0.000
0.000 0.000 0.000
0.000 0.000 0.000
0.000 0.000 0.000
0.000 0.000 0.000
0.000 0.000 0.000
0.000 0.000 0.000
0.000 0.000 0.000
0.000 0.000 0.000
0.000 0.000 0.000
0.000 0.000 0.000
0.000 0.000 0.000
0.000 0.000 0.000
0.000 0.000 0.000
0.000 0.000 0.000
0.000 0.000 0.000
0.000 0.000 0.000
0.000 0.000 0.000
0.000 0.000 0.000
0.000 0.000 0.000
0.000 0.000 0.000
0.000 0.000 0.000
0.000 0.000 0.000
0.000 0.000 0.000
0.000 0.000 0.000
0.000 0.000 0.000
0.000 0.000 0.000
0.000 0.000 0.000
0.000 0.000 0.000
0.000 0.000 0.000
0.000 0.000 0.000
0.000 0.000 0.000
0.000 0.000 0.000
0.000 0.000 0.000
-0.310 -0.276 0.524
-0.317 -0.284 0.539
-0.320 -0.288 0.546
-0.315 -0.285 0.541
-0.306 -0.278 0.528
-0.303 -0.276 0.525
-0.310 -0.284 0.540
-0.312 -0.288 0.548
-0.310 -0.288 0.547
-0.310 -0.288 0.549
-0.311 -0.291 0.554
-0.310 -0.291 0.554
-0.309 -0.292 0.557
-0.309 -0.294 0.560
-0.310 -0.296 0.564
-0.310 -0.297 0.567
-0.311 -0.300 0.572
-0.311 -0.301 0.574
-0.312 -0.304 0.580
-0.311 -0.304 0.581
-0.309 -0.304 0.581
-0.308 -0.304 0.582
-0.309 -0.307 0.588
-0.311 -0.311 0.594
-0.311 -0.313 0.599
-0.310 -0.313 0.599
-0.308 -0.313 0.600
-0.308 -0.315 0.603
-0.309 -0.317 0.607
-0.308 -0.319 0.610
-0.309 -0.321 0.615
-0.308 -0.322 0.617
-0.308 -0.323 0.620
-0.309 -0.326 0.625
-0.311 -0.330 0.634
-0.311 -0.332 0.638
-0.310 -0.333 0.639
-0.307 -0.332 0.638
-0.306 -0.333 0.639
-0.305 -0.334 0.641
-0.306 -0.336 0.646
-0.306 -0.338 0.650
-0.306 -0.340 0.654
-0.306 -0.342 0.658
-0.305 -0.343 0.660
-0.304 -0.344 0.663
-0.308 -0.350 0.674
-0.310 -0.355 0.683
-0.309 -0.356 0.685
-0.306 -0.355 0.683
-0.305 -0.356 0.686
-0.305 -0.358 0.690
-0.305 -0.360 0.695
-0.304 -0.361 0.696
-0.303 -0.363 0.700
-0.302 -0.363 0.701
-0.301 -0.365 0.704
-0.300 -0.366 0.707
-0.300 -0.368 0.711
-0.299 -0.370 0.714
-0.299 -0.371 0.717
-0.298 -0.373 0.721
-0.298 -0.375 0.725
-0.298 -0.377 0.729
-0.298 -0.380 0.734
-0.299 -0.385 0.744
-0.303 -0.392 0.758
-0.304 -0.396 0.765
-0.303 -0.398 0.770
-0.302 -0.399 0.772
-0.301 -0.400 0.774
-0.299 -0.401 0.776
-0.298 -0.403 0.779
-0.297 -0.404 0.783
-0.296 -0.405 0.785
-0.295 -0.406 0.787
-0.293 -0.408 0.789
-0.292 -0.409 0.792
-0.291 -0.410 0.795
-0.290 -0.412 0.797
-0.289 -0.413 0.800
-0.287 -0.414 0.802
-0.286 -0.415 0.804
-0.284 -0.416 0.806
-0.283 -0.417 0.809
-0.281 -0.418 0.810
-0.279 -0.419 0.812
-0.277 -0.419 0.812
-0.275 -0.419 0.814
-0.273 -0.419 0.813
-0.271 -0.419 0.814
-0.268 -0.419 0.813
-0.266 -0.419 0.813
-0.263 -0.418 0.811
-0.261 -0.418 0.811
-0.258 -0.416 0.808
-0.247 -0.402 0.781
-0.221 -0.362 0.704
-0.203 -0.336 0.654
-0.196 -0.328 0.637
-0.194 -0.327 0.636
-0.192 -0.327 0.636
-0.190 -0.327 0.636
-0.189 -0.327 0.635
-0.187 -0.327 0.635
-0.185 -0.326 0.635
-0.183 -0.327 0.635
-0.182 -0.327 0.636
-0.180 -0.326 0.635
-0.178 -0.326 0.634
-0.176 -0.325 0.633
-0.174 -0.326 0.634
-0.172 -0.326 0.633
-0.171 -0.326 0.634
-0.169 -0.326 0.633
-0.167 -0.325 0.633
-0.166 -0.326 0.633
-0.164 -0.326 0.634
-0.162 -0.326 0.634
-0.160 -0.326 0.634
-0.160 -0.328 0.638
-0.159 -0.329 0.641
-0.158 -0.331 0.644
-0.157 -0.332 0.647
-0.158 -0.339 0.660
-0.166 -0.359 0.699
-0.173 -0.380 0.741
-0.177 -0.394 0.767
-0.188 -0.423 0.823
-0.200 -0.455 0.886
-0.203 -0.467 0.910
-0.202 -0.472 0.919
-0.202 -0.476 0.927
-0.201 -0.481 0.937
-0.200 -0.485 0.944
-0.199 -0.487 0.949
-0.197 -0.489 0.952
-0.195 -0.491 0.957
-0.197 -0.502 0.978
-0.197 -0.510 0.993
-0.196 -0.513 0.999
-0.193 -0.514 1.002
-0.191 -0.516 1.005
-0.189 -0.517 1.008
-0.187 -0.518 1.011
-0.184 -0.519 1.012
-0.182 -0.520 1.014
-0.179 -0.520 1.013
-0.176 -0.519 1.011
-0.173 -0.518 1.010
-0.170 -0.518 1.010
-0.167 -0.518 1.009
-0.165 -0.519 1.011
-0.162 -0.520 1.013
-0.159 -0.516 1.007
-0.153 -0.505 0.985
-0.147 -0.495 0.965
-0.143 -0.489 0.953
-0.139 -0.486 0.947
-0.136 -0.483 0.942
-0.133 -0.482 0.940
-0.130 -0.481 0.938
-0.127 -0.480 0.937
-0.125 -0.480 0.936
-0.122 -0.480 0.936
-0.119 -0.478 0.933
-0.116 -0.477 0.931
-0.114 -0.477 0.930
-0.111 -0.476 0.928
-0.108 -0.474 0.925
-0.105 -0.472 0.921
-0.102 -0.471 0.918
-0.100 -0.470 0.917
-0.097 -0.469 0.914
-0.094 -0.468 0.913
-0.092 -0.467 0.911
-0.089 -0.466 0.910
-0.086 -0.465 0.908
-0.084 -0.465 0.906
-0.081 -0.464 0.904
-0.079 -0.463 0.903
-0.076 -0.462 0.902
-0.074 -0.461 0.900
-0.071 -0.460 0.898
-0.068 -0.459 0.896
-0.066 -0.458 0.894
-0.063 -0.457 0.892
-0.061 -0.456 0.891
-0.058 -0.456 0.889
-0.056 -0.455 0.888
-0.053 -0.454 0.886
-0.051 -0.453 0.884
-0.048 -0.452 0.882
-0.046 -0.451 0.880
-0.043 -0.450 0.879
-0.041 -0.450 0.878
-0.038 -0.449 0.876
-0.036 -0.448 0.875
-0.033 -0.447 0.873
-0.031 -0.447 0.872
